0.308633849436	0.00306724441687	-0.203222046444
0.313680767911	-0.0737431973189	-0.195009879952
0.310140386631	-0.0655593813486	-0.199558586576
0.312464589174	-0.0507109158553	-0.201559355121
0.309719936544	-0.0362179235459	-0.205446288282
0.308773878337	-0.0185805612219	-0.204656911304
0.309185744327	-0.00538338933866	-0.203322652653
-0.129966135446	-0.153024941173	-0.118744804974
-0.255230206461	0.423667349261	-0.087188564661
0.318341156587	-0.169379224272	-0.176793197058
0.309577352299	0.0562174183236	-0.194249589511
-0.243539006947	0.378294971328	-0.0860592263078
0.0272271340576	-0.263421436272	-0.0656903794792
-0.137959119322	0.475543840992	-0.0910233135994
0.0219538655554	-0.264131861163	-0.0437674032302
-0.145300924526	-0.0189161289477	-0.163156441219
-0.148303946705	0.113721418245	-0.185505770542
-0.151830864331	-0.0612754362652	-0.147097451719
-0.156865637572	-0.14784694445	-0.115399107293
-0.16056394564	0.506299995208	-0.0918534252436
-0.279885503552	0.335409081873	-0.100421478676
-0.206657351167	0.14853532594	-0.173052787712
-0.21304893232	-0.120796472016	-0.0793361480931
-0.254191904329	-0.256921212654	-0.0948016512454
-0.312999649999	-0.0392069067508	-0.114021497247
0.304841298151	-0.269200660692	-0.0579241654715
0.206838857339	0.165537547687	-0.176218625247
-0.0612843287309	-0.281230908162	0.137245703278
-0.121756774548	0.121126795623	-0.184328473498
-0.0429126540423	-0.0109169531159	-0.267656288017
0.305864717046	-0.184087993389	-0.183531009346
0.307458933438	-0.174818905202	-0.184734014723
0.304286686041	-0.164198027166	-0.188549700792
-0.204801116978	0.0994456444607	-0.184730905203
0.144860325966	0.0647599482361	-0.268041391537
-0.202420727459	0.110357934224	-0.18486387054
0.298442405536	-0.13715218251	-0.206992753106
0.305156632718	-0.119405926848	-0.200793141021
0.306284497708	-0.135958078332	-0.199093742905
0.0995455238145	-0.272112665625	-0.207581549508
-0.174175163481	0.0798721791085	-0.183986978033
-0.171568265491	0.0694250334834	-0.184640913541
0.302491491907	-0.0782480043044	-0.202062071497
0.303624573919	-0.065214273565	-0.205520439843
0.304842064214	-0.0537458069756	-0.206853829556
0.307823238899	-0.0284467794393	-0.206234753083
0.174929883865	-0.291388824959	-0.160394363227
-0.13455450442	-0.130734069087	-0.123885187924
-0.00654122865412	-0.263492621221	-0.102271554803
-0.256387817197	-0.264538346059	-0.0963931975368
-0.281283557601	0.156170638105	-0.145120550782
-0.137962328159	0.496243060577	-0.101320630177
-0.145614456805	0.126284620661	-0.183983460433
-0.280274658267	0.55114060542	-0.42047825781
-0.155096970177	-0.157936376203	-0.112884885301
-0.173397264268	0.0197412243217	-0.182057507058
-0.263975749981	-0.10752612072	-0.0688646079263
-0.187867492702	-0.171389541567	-0.0919662151872
-0.236243067382	-0.258252198923	-0.101521645214
-0.279637066376	0.56021563583	-0.421239872463
-0.292540872059	-0.0189252602736	-0.14673725755
-0.31846096957	-0.0571274423591	-0.0873279846937
-0.231244329433	0.314991815658	-0.0900148187817
0.297979897252	-0.266717829049	-0.0646192210846
-0.0979590228254	0.582491594983	-0.125058621747
-0.261423809437	0.330551265669	-0.0982000161898
-0.23207923276	0.322682786167	-0.0894468099338
0.297182835977	-0.187901576617	-0.187736466096
0.298123654965	-0.1800107603	-0.190641443098
0.298934078149	-0.171777057636	-0.19253479729
-0.238347299176	0.263812904337	-0.105444284438
-0.260579989371	0.603168891362	-0.440986087893
-0.162587806649	0.473010032948	-0.0815249529178
0.16037142208	0.181780578945	-0.176263141192
0.29657239254	-0.0918011299577	-0.205633427698
0.300657035817	-0.0863945874039	-0.200866328428
0.295212642308	-0.0843049193594	-0.210381446987
0.296312934644	-0.0657489576209	-0.211794168635
0.296330981518	-0.0539143763097	-0.213173589122
0.298217682602	-0.0456067441115	-0.212123592324
0.300000347209	-0.0268764983994	-0.210315537915
0.295517396782	-0.0159759799376	-0.211067020693
0.30049822294	-0.00610729085159	-0.207404204393
0.296072208634	0.000765155406144	-0.209139014062
0.299106492926	0.0104865852876	-0.207337824518
0.374772776065	-0.15801725866	-0.0956121154327
-0.134952538477	0.0966896619223	-0.188462666303
-0.137234036583	0.134070228071	-0.182914553349
-0.221552330765	0.468323328759	-0.0518013256843
-0.117123362263	-0.200699748456	-0.122398999656
-0.147983010587	-0.0462697920019	-0.154541311202
-0.146627088878	0.139980805041	-0.183286706035
-0.143868894864	-0.0616765707045	-0.150974054159
-0.288613432174	0.529340151851	-0.405142438725
-0.14910234118	-0.0357685551421	-0.156310749743
-0.145702407201	0.536325878941	-0.100054261423
-0.171926556739	0.00490914793012	-0.175808429814
-0.158056730123	0.530310863045	-0.0919774158215
-0.172771914532	-0.00336955501821	-0.170748465759
-0.189649056971	-0.185921275241	-0.0903997155437
-0.286488616683	-0.0551444249517	-0.116017479999
-0.287472514261	0.504780267439	-0.397706616732
-0.301378121147	0.303507082686	-0.102658034181
-0.323782698445	0.113982856226	-0.13776583486
-0.314206419702	-0.0510153312222	-0.0948379327112
0.295823290179	-0.272250370706	-0.0588252548862
-0.218204580405	-0.11037696109	-0.0814114428494
-0.220920285597	-0.101191991696	-0.0910572106826
-0.326709746312	0.163411130829	-0.116698620086
0.316217313209	0.0472273564521	-0.191107210476
0.293661220909	-0.195657226199	-0.183476723767
0.293063862564	-0.175781553974	-0.197245007816
0.291842244184	-0.154958120245	-0.210187280537
0.290564276874	-0.141527012993	-0.212543307784
0.290017710778	0.0216812603358	-0.212089821164
0.291499152736	-0.101318769169	-0.209374705759
0.291394874071	-0.0934224554411	-0.211676271455
0.289342022121	-0.0781854765431	-0.2175083589
0.288857858168	-0.0579901815452	-0.217801133353
0.290780180581	-0.0393786865863	-0.216098201609
0.29075316859	-0.0248242733143	-0.214110399537
0.292663527468	-0.00587381260954	-0.211880942498
0.291369952029	0.0135628486477	-0.21131222845
0.256241546551	-0.250232290742	-0.181438288547
0.295924272264	0.0289010517391	-0.20828877556
0.401649838805	-0.130385528672	-0.0751346195792
-0.134891333106	0.115730814783	-0.185246893329
-0.136652390569	-0.157152941135	-0.117023077279
-0.136925229066	-0.114246498013	-0.128915830841
-0.139857525212	-0.122881790191	-0.126416634424
-0.226598808617	0.429651442286	-0.0572072062448
-0.141616626762	0.504504222	-0.102542619831
-0.144252831371	0.149819807795	-0.181963060651
-0.14571843224	0.523507648713	-0.101383263054
-0.20618477906	0.174984974929	-0.164106099791
-0.322564033977	0.364534015671	-0.0921742791921
-0.29329177812	-0.0263550030979	-0.142323400458
0.39000543555	0.150760103704	-0.0836472449127
-0.168094940671	-0.27723633408	-0.124576948778
0.36068339523	0.006096423075	-0.163802155222
0.137621136375	-0.28679384602	0.246014530478
-0.226728572973	0.149448591021	-0.16563795622
0.285910283408	-0.203607722352	-0.178927460324
0.285329239167	-0.176651090248	-0.203931457004
0.288003304478	-0.183739664465	-0.196254282881
0.287673692941	-0.167607398101	-0.208717756006
0.283115275436	-0.161654121253	-0.21442775173
0.28493496598	-0.150724063928	-0.215360655505
0.288474928197	-0.12486983496	-0.212106899938
0.285752405432	-0.109834460365	-0.212483474702
0.28558281485	-0.100606110008	-0.214742720786
0.284644160127	-0.0859409147402	-0.21980070872
0.2848294992	-0.0694524974692	-0.221370587912
0.28471928181	-0.0459504518555	-0.219273060818
0.285860970562	-0.00995651779799	-0.215416381433
0.284282503665	0.00781473510803	-0.214861164455
0.317270375291	-0.197882526541	-0.160847929213
-0.38262196984	0.380254231492	-0.0494652333138
-0.135924747437	0.124045793218	-0.183403802674
-0.136695631572	0.482928861803	-0.095718293538
-0.0669117308428	-0.108757801474	-0.138106794356
-0.138345480628	-0.139658652186	-0.120871921891
-0.14046539093	-0.149303112496	-0.118492464969
0.282081810774	0.114853002921	-0.187262468417
0.0718970440682	0.663754006301	-0.223788925661
-0.144034003216	0.515314010348	-0.102611803668
-0.141710921504	-0.0771223771181	-0.145760032278
-0.153304097549	-0.0197561678236	-0.161355356601
-0.339366092799	0.0532135417468	-0.136273234696
-0.322612082373	0.0134607926607	-0.142478517603
-0.201408703182	0.18247660283	-0.164360886212
-0.237734465721	-0.111694127672	-0.0713293654857
-0.214322176522	-0.0416714755506	0.217188660836
-0.260787217394	0.0210999866339	-0.168330497015
-0.139509222146	-0.22292404019	-0.123872567853
0.00997748068532	-0.265954929908	0.075144548531
0.325630237965	-0.0140914844212	-0.191236463147
0.282556203366	-0.195147928573	-0.189407827709
0.279923630843	-0.170842533414	-0.211730040318
0.281683174987	-0.141607023136	-0.21690668056
0.278344923348	-0.134034886277	-0.217367843806
0.282259583068	-0.118295272461	-0.213952257328
0.27801242287	-0.10021123428	-0.219823210844
0.278077937814	-0.0784191964557	-0.225149478541
0.276950999177	-0.0525637633859	-0.224855192842
0.277069213519	-0.0412907634256	-0.222238387269
0.281443866052	-0.0271561222654	-0.217817823838
0.276055001683	-0.0158491381004	-0.219087346969
0.279030347329	-0.000917780034851	-0.218275906657
0.276202995586	0.0336092025858	-0.217615529591
-0.130395821561	0.0789125746788	-0.191109009484
-0.105435712924	-0.285647262297	0.224269975388
0.0197122621587	-0.263407341849	-0.0730745616808
-0.353896187919	0.177561658283	-0.0900508461949
-0.323214069679	0.309427261942	-0.100748635569
-0.14684465703	0.166064744119	-0.176100570638
-0.144192231937	0.158978880588	-0.179306717322
-0.174906075853	-0.0137980051932	-0.165228762566
-0.189718042871	-0.209921474925	-0.0945835404897
-0.125550224541	-0.101653612465	-0.133681930717
-0.238934207915	-0.103618526336	-0.0833432733199
-0.303696882974	0.330412304433	-0.100894416379
-0.224117743431	0.206905484065	-0.151383389259
0.255194721486	0.0423966163206	0.280599234985
0.299045245575	-0.148401209169	-0.204798718362
0.272549778378	-0.206112585378	-0.184519633934
0.274927803316	-0.187945951534	-0.199895435696
0.273376102941	-0.195248708549	-0.19282862215
0.273091543834	-0.182769600633	-0.205451570622
0.271661716839	-0.174912049384	-0.212916108247
0.2728480792	-0.161045509378	-0.22010327522
0.272081358202	-0.144185721295	-0.220813121728
0.274642039549	-0.122276278949	-0.217355321216
0.276046150375	-0.114159390472	-0.21786874839
0.271149733445	-0.104160464193	-0.222534310741
0.270901387483	-0.0829272664444	-0.227599200432
0.272255136724	-0.0586864626477	-0.22849472052
0.270077843572	-0.0487722614595	-0.228179401752
0.269458704565	-0.0391192263885	-0.22607385006
0.273128580402	-0.0327381600398	-0.222618846499
0.274251757439	-0.0236535994275	-0.220484917413
0.271328848654	0.00165817248088	-0.221728161637
0.269452645932	0.00968385596658	-0.222373967249
0.275137231706	0.0173619232852	-0.219575238184
0.27469137712	0.0256753625762	-0.219696193433
-0.349014943313	0.477971029883	-0.0399280608269
-0.190665976174	0.524460046612	-0.0633134813283
0.0599757458523	0.0515252665961	-0.291173170585
0.126329296949	-0.292824323132	-0.183339470641
-0.325194228561	0.446473413673	-0.248442924277
0.269430269463	0.110115440414	-0.191978452934
0.263240086486	0.124624189274	-0.190195807808
-0.343514088176	0.186003720642	-0.0951659268115
0.421208368808	-0.228560689855	-0.0499137417818
-0.147083917146	-0.0900756459486	-0.137323866166
-0.0213224947641	-0.265282068449	-0.00906234323142
-0.144516664032	0.174164542966	-0.173085747235
-0.228949689609	-0.101826840728	-0.0881815836252
-0.173322341841	-0.0355947127954	-0.152435806447
-0.167892416276	-0.0409488167204	-0.149053355107
-0.189787968736	-0.19760466948	-0.0914058560258
-0.291090847606	-0.253753583812	-0.0629094035185
-0.241570463311	-0.0920791509146	-0.0953810989992
-0.33957045527	0.348372801805	-0.0903328150853
-0.0102920765594	-0.115520439909	-0.253547483885
-0.372108040826	0.207499766349	-0.0529658671863
-0.309754904827	-0.268345100119	-0.0482455626198
0.271261210047	-0.215216608743	-0.184505562244
0.264765237354	-0.20940573523	-0.190013779513
0.268673050699	-0.201541544286	-0.189913858333
0.263694103048	-0.18903080381	-0.202964483999
0.265670031742	-0.195142067037	-0.195691981256
0.266039504364	-0.169812061622	-0.218550979742
0.266212026896	-0.157095490544	-0.223691800811
0.265387314126	-0.148651908896	-0.224027484955
0.26455236833	-0.132363099432	-0.221904380366
0.265140683563	-0.110508030441	-0.22339655113
0.265591879612	-0.0906718724864	-0.227919693152
0.265068984377	-0.0660641719635	-0.23153286466
0.265844023986	-0.0308321081244	-0.226159408195
0.264395638194	-0.0222978463228	-0.225395821076
0.269176729237	-0.00879538515132	-0.222889178388
0.263927679413	0.00423593520674	-0.226021200897
0.265715939905	0.0193559674913	-0.224467826346
-0.287109408481	0.446499189612	-0.265060152718
-0.133056449811	0.168829819861	-0.17681318791
-0.134045382528	0.158762729287	-0.179547819576
-0.192588577353	-0.17861470951	-0.0875327115597
0.36580328038	0.0267785217167	-0.163460504765
0.263622620257	0.116118016155	-0.191484347108
-0.229757039953	-0.0941726343305	-0.0963136115178
-0.14774116192	-0.0979177793922	-0.13356547686
-0.194744333071	0.501274252201	-0.0666114016775
-0.1283871693	0.0134380425344	-0.176511661479
-0.163583604408	-0.255373535365	-0.12109636691
-0.173714143506	-0.055199549666	-0.141901453571
-0.205866836702	0.211313440803	-0.153624137917
-0.243564713451	-0.0776386996439	-0.115311970443
-0.241687347131	-0.0833919823387	-0.106855408425
-0.299991657767	0.345507420678	-0.0992222422736
0.303368411719	-0.250265352658	-0.0802510819673
-0.115054407012	-0.157596983133	-0.11732573256
0.262558859082	-0.226661332545	-0.190880760045
0.25958357399	-0.179632462451	-0.212705997273
0.261027365584	-0.16545359404	-0.222799163297
0.261806481578	-0.124500964977	-0.222162629187
0.258194492139	-0.10645576053	-0.227493429551
0.260934550599	-0.0755604586294	-0.231705024022
0.259460406385	-0.0553878614751	-0.233842049835
0.260679362376	-0.0450084528532	-0.231827452942
0.257702960116	-0.0270861269406	-0.229009621186
0.259185516068	-0.0164855149061	-0.227479789081
0.258423918749	-0.008323708253	-0.228584455181
0.258238288406	0.0123662245972	-0.228571865664
0.256384110445	0.0286762617409	-0.228765339034
-0.1293666504	-0.0835371736152	-0.143552624281
-0.12983394877	-0.195117023062	-0.11548090436
-0.133620956474	0.022293782715	-0.178897377063
0.0492727155084	-0.0978709927692	0.298548551606
-0.350504478331	0.486640880193	-0.123793579102
0.256152054008	0.130089116908	-0.189638518829
0.059428612564	-0.262857312739	-0.055077217568
0.149834557786	0.077711222812	-0.262469598363
-0.229157326637	-0.0726851463371	-0.125585682028
0.338007182956	0.00642429197564	-0.177554044889
-0.384127747324	0.363162962361	-0.0562393767514
-0.413471445723	0.211301441347	0.110414363194
-0.317382579874	0.64341921435	-0.403359914656
-0.220443732487	0.0762669016099	-0.184228952974
-0.239815130082	-0.0676022646201	-0.132042599536
-0.244186048313	-0.0722072768465	-0.123595768202
-0.0724191214312	-0.292131861603	0.108549773325
-0.128618226684	-0.288973201207	0.194078709306
0.251153445476	-0.237889546884	-0.19178204136
0.256966761041	-0.241704794449	-0.187016251026
0.252932452432	-0.229702748137	-0.194479880136
0.254881954674	-0.220765746588	-0.195659004314
0.251424040446	-0.206685990251	-0.199056364475
0.255983931352	-0.199759342541	-0.198745212962
0.252044433692	-0.184069408474	-0.211508101965
0.254126856093	-0.174805161411	-0.217590406397
0.255799091079	-0.150970153935	-0.227244676025
0.256164908873	-0.141212102749	-0.226586587321
0.252270561936	-0.130299296476	-0.225849034236
0.254198253022	-0.122080673261	-0.224796386851
0.25657626533	-0.0976510167871	-0.230490371334
0.253073888316	-0.0745035819782	-0.235101477798
0.251411843529	-0.0820685159204	-0.234304871566
0.254675089443	-0.0657336205137	-0.235589791731
0.25300523365	-0.044526989206	-0.235175237142
0.254111885207	-0.0353979249387	-0.232334049651
0.251802743235	0.018518648085	-0.231254051054
-0.299628051414	0.47420300142	-0.357928189139
-0.129418901995	-0.0506745538636	-0.159575303837
-0.133123788391	-0.0701016931459	-0.15007751199
-0.131097428399	-0.0959146164342	-0.137018559234
0.249173581751	0.122017999615	-0.191475414758
-0.242971940789	-0.225898286798	-0.0746807876126
-0.287906451752	-0.225036624231	-0.00389995368027
-0.141404083612	-0.0321485163443	-0.160741391275
-0.137027882597	0.0319578297517	-0.182066860052
-0.137599871489	0.0471437785409	-0.18517919476
-0.122942460518	-0.163946257078	-0.117215352767
-0.153951117405	0.000750294330223	-0.171281692588
-0.15573856134	-0.181635683142	-0.106455882146
-0.155245855607	-0.189401323068	-0.106629258528
-0.168203046606	-0.0637677705399	-0.139302348248
-0.191024453566	-0.226756854867	-0.101270603098
-0.174594684126	-0.126346223735	-0.11524656902
-0.240148414991	-0.0571614085688	-0.142524532617
-0.30334807145	0.364650100853	-0.0971643034121
-0.200160052662	0.422962044232	-0.0525639010638
-0.120980391799	-0.00799767622348	-0.169090555597
-0.232448923156	0.275057048277	-0.100313832118
0.244741883897	-0.220286946773	-0.20000108355
0.246807289525	-0.199326787207	-0.205049570235
0.249235615204	-0.191327095142	-0.208508057727
0.247119671299	-0.179717934252	-0.216909569251
0.247533083986	-0.169119396892	-0.222573501145
0.249237790469	-0.160411837069	-0.226266009722
0.245558210196	-0.14077487958	-0.229804741345
0.24422201197	-0.123775771005	-0.228691189788
0.245381540472	-0.1130984836	-0.230943067608
0.249289478134	-0.102295497676	-0.232656621099
0.248621482793	-0.09397408983	-0.234356640961
0.24735419738	-0.0684973180349	-0.238738035384
0.250125264867	-0.0549613317238	-0.237598831199
0.246638773535	-0.023188826812	-0.234311924563
0.248074473376	-0.011920937509	-0.234756413438
0.246334811856	-0.0028392237149	-0.236341499985
0.248286620197	0.0101984197802	-0.233912661649
0.245530063366	0.0326628257915	-0.234131625247
0.297768313477	-0.16224682992	-0.199518674967
-0.0362739211165	0.0864920117868	-0.213570874454
-0.134109266559	0.00576389047155	-0.173170862596
-0.132330836628	-0.0167512559111	-0.166434906388
-0.130670323728	-0.00843904333352	-0.169702102459
-0.13370229742	-0.0299168814197	-0.163324292127
0.24142251922	0.110442420792	-0.196090030709
0.0801006453841	0.636605492957	-0.215787662629
0.082949198597	0.623279445887	-0.210896592555
0.00127802719864	0.12544983141	-0.200525185485
-0.121203767219	0.553930703235	-0.115888634462
-0.328091916515	0.319974055636	-0.0984651147478
-0.327067620269	0.277269298754	-0.0969389821357
-0.160906636819	0.118843913092	-0.186156596294
-0.155214551157	-0.201251006925	-0.107695123057
-0.173031705838	-0.0820165097761	-0.130035994934
0.0632926942428	-0.268024949569	-0.151616688253
-0.186481285125	-0.257467747708	-0.117827452001
-0.187427023788	-0.243227558031	-0.112620662987
-0.19500236564	0.45136602815	-0.0627961287103
-0.279931661268	0.163495049057	-0.141653380025
0.241531934649	-0.243398834183	-0.192857295436
0.243914009989	-0.250688657958	-0.187891406493
0.241817577582	-0.228730562058	-0.19904756303
0.241705634009	-0.207611910249	-0.203872639456
0.238254560186	-0.201383441428	-0.209564057796
0.238701569461	-0.18528596391	-0.218354156397
0.241282758118	-0.157508799547	-0.228855420586
0.240775336232	-0.165039344903	-0.225811579715
0.2405673112	-0.148300136584	-0.230794768834
0.242686417048	-0.133506869678	-0.229558446608
0.238851851766	-0.108729010718	-0.234713930538
0.241162393577	-0.0922851410642	-0.237093485758
0.239889997961	-0.0819837855369	-0.23877794512
0.243264190768	-0.0429886486255	-0.239577425891
0.241531859887	-0.032699235728	-0.2377412393
0.237922364885	-0.00157029121101	-0.240863351263
0.241921055637	0.00546137654053	-0.237952203527
0.23937624452	0.0135579605913	-0.237839982121
0.240885707485	0.0235399507159	-0.23641672291
0.239134622139	0.0391227032459	-0.237503369903
0.239976398063	0.0506299908599	-0.236539730214
0.488718666774	-0.0589690400055	0.106506949241
-0.24566872602	0.245521521127	-0.116024217421
-0.160650368264	0.132513999576	-0.184798409543
-0.112099076613	-0.0994055555667	-0.133284154832
-0.113230043564	-0.0775581758981	-0.143866037407
-0.111582144644	-0.0569267301343	-0.153338508247
-0.400123806401	0.291009130431	-0.0658166373872
-0.246189804422	0.395291808988	-0.0803514661647
-0.38988108909	0.376218767219	-0.0448986546791
0.469141233555	-0.129239878059	-0.0729820452976
-0.138845818653	-0.215764978436	-0.116307662015
-0.126746458011	-0.0576800887749	-0.156757788321
-0.160010345674	-0.210362334895	-0.108204996699
-0.165050029181	-0.231427634479	-0.1137386087
-0.33570937322	-0.0248273580133	-0.105151087902
-0.240484469125	-0.0455874944594	-0.149839486003
-0.00149516193546	-0.265677415273	0.0103021420238
-0.30605461959	0.395452204062	-0.0975754960643
-0.19495532043	0.101038931251	-0.185874690255
0.234527227461	-0.272322027626	-0.18298735682
0.232709220226	-0.257225904967	-0.189192369378
0.234162182503	-0.241758006422	-0.196057073192
0.234958047018	-0.248959454303	-0.191968983227
0.234772703343	-0.214047643237	-0.204577036592
0.23712839609	-0.192978405736	-0.217139167684
0.23235342233	-0.173883317004	-0.224155595713
0.233039031244	-0.147821178566	-0.232495637974
0.233739041845	-0.135128198035	-0.231760575874
0.234828645811	-0.123289216562	-0.231168180462
0.232413381967	-0.114538593217	-0.233724875921
0.236094241575	-0.0998086681041	-0.237633213989
0.236977911127	-0.0679178825393	-0.243794900427
0.235348105564	-0.057570650351	-0.245216715454
0.236401379456	-0.0451732073051	-0.243535972552
0.233316665903	-0.0356269256114	-0.241868574419
0.23506464949	-0.0186443828671	-0.239855122369
0.231656128026	0.00247779960202	-0.243540685513
0.231703318613	0.0167484345101	-0.240498811513
0.230588555354	0.0414037270714	-0.241989313594
0.233194267367	0.0488494935811	-0.240685753074
-0.337841792553	0.232347630756	-0.0852465392771
-0.281390412849	0.213405071299	-0.119731209259
-0.266798288589	0.230839162435	-0.116335198827
-0.22846392063	-0.0679803555841	-0.132951450831
-0.269347571674	0.0529210401354	-0.166723338874
0.119465546028	0.181034654375	-0.189077454202
-0.195096597689	0.0338673077055	-0.18338789175
-0.261922844118	0.237736678036	-0.113595608158
0.149412361489	0.220305036803	-0.169848870496
-0.314070314542	0.469132824149	-0.332024245871
-0.0533185046004	-0.286764717848	0.247352129849
-0.133247403	0.489669346282	-0.0999667264515
-0.26555298225	-0.238813732998	-0.0775959372467
0.234961188211	0.184919862428	-0.164111535582
-0.207820601675	-0.234624694556	-0.0993917023917
-0.14930390037	0.0187778992804	-0.178093900406
-0.154108048453	-0.222339657859	-0.113679041992
-0.161814839368	-0.220717827615	-0.110577982141
-0.171407485124	-0.104910699493	-0.121968456471
-0.179270453042	0.452698538063	-0.0678839817529
-0.399807796743	0.271265308952	-0.0654440651652
0.0564561804878	0.157830623922	-0.194296161707
-0.199180761462	0.156522829144	-0.172022323392
-0.241751013485	-0.0327385777	-0.156193966123
-0.0149147172488	0.171687204603	-0.18888606226
-0.137169518718	-0.288187825267	0.217417255399
0.0548723653766	-0.260762491793	-0.128154364928
-0.364245692527	0.22983216773	-0.0709545387338
-0.193879949281	0.460048782946	-0.0650268215539
0.229943099604	-0.228059223373	-0.203005821442
0.225390837318	-0.218844882187	-0.206061077839
0.227328471389	-0.211212108267	-0.207628227167
0.228639344207	-0.201469755863	-0.214367570042
0.227670938545	-0.191758880882	-0.221161643225
0.22576181006	-0.181675865826	-0.224343374541
0.227264230659	-0.156068332419	-0.233589052527
0.225636340069	-0.140329759715	-0.234363858402
0.229738128704	-0.105569723438	-0.237372995653
0.227913735116	-0.0855940149239	-0.241150868972
0.228374314961	-0.0766668665027	-0.24333634887
0.229540430747	-0.064748102955	-0.246343322667
0.22785508349	-0.055028223789	-0.247940025253
0.228374953183	-0.0448066484471	-0.246030322833
0.227777689665	-0.0254334211721	-0.241955800345
0.224344673119	-0.00156961859542	-0.24714398839
0.226658108541	0.0312334949887	-0.241776435919
-0.133788959661	0.503611085341	-0.105702676291
-0.135447075	0.52170811614	-0.107846834147
-0.136822599577	0.530651028223	-0.1066605666
-0.135674809579	0.544274092476	-0.107015396248
-0.280475738606	0.195582734529	-0.127278561182
-0.00600342060939	0.0611014267652	-0.278028187697
-0.292129481681	0.513890429056	-0.39843750304
-0.131471004652	0.108482319862	-0.187437146168
0.450487361661	-0.133037274411	-0.077607058864
0.227729161067	0.181387127068	-0.167145787678
0.338182772262	-0.213817005633	-0.0885251913138
-0.3503519055	-0.0183997575296	-0.0946699220753
-0.349758404605	0.0192164604066	-0.116674838451
-0.170541560876	-0.0970376292899	-0.124553061609
-0.196154151093	0.132941907057	-0.183293935611
-0.103865122106	-0.290580827326	0.141601891902
-0.241805509426	-0.0193475264184	-0.162412793933
-0.3194425877	0.410965366851	-0.11114892204
-0.322946495271	0.375758014471	-0.0902938609577
0.427979424536	0.0251316823629	0.121741270252
0.224677276284	-0.26924445856	-0.189141148578
0.222849291077	-0.260617208918	-0.190946160967
0.220942410828	-0.246298033186	-0.196190491955
0.225239065887	-0.239771981781	-0.198964409272
0.221047073975	-0.198389343411	-0.21936429316
0.219008467542	-0.190369332614	-0.224087665871
0.223647257701	-0.16855823938	-0.230536377731
0.222564352351	-0.129949720867	-0.234138216648
0.223547421042	-0.120140663803	-0.23376241793
0.222335048161	-0.101674727263	-0.241221859147
0.221955952497	-0.0939499135161	-0.242148557288
0.220932632808	-0.0737342379545	-0.243176480658
0.219620048889	-0.063423385587	-0.24756619997
0.218513045951	-0.0429763396484	-0.248656925079
0.219338837304	-0.0340679674245	-0.246782830828
0.222759729927	-0.0152031748959	-0.2454863571
0.223805801404	0.00788171672682	-0.24610714268
0.217865716921	0.0147482459893	-0.247172595664
0.224025668859	0.022982366688	-0.242412886053
0.222807850044	0.0441527608939	-0.243551698654
0.220001927646	0.0366549560286	-0.243718744881
0.222560199631	0.0580175094582	-0.243083930406
-0.139652428367	-0.181114083293	-0.113531626025
-0.139362695854	-0.192473991027	-0.113167910928
-0.140021055556	-0.205189813044	-0.113413789571
0.0498751565426	0.167738845307	-0.188584043213
-0.304233832295	-0.262072141984	-0.0513220679338
0.218293926792	0.178935047421	-0.170034799288
0.0454321633025	0.542250655283	-0.155666267747
0.331151210502	0.0124156302389	-0.181706443746
-0.167807333715	-0.121031207069	-0.120869947471
0.247608008022	0.180521672273	-0.15993751861
-0.122997547719	0.490296247845	-0.103315764718
0.21820895166	-0.253620407291	-0.193648007587
0.216066903578	-0.239906476795	-0.19950843772
0.21821165092	-0.222811773573	-0.206507441935
0.214969605807	-0.23076238828	-0.204274859651
0.213607903283	-0.203944945416	-0.217271704914
0.218256701813	-0.211452786263	-0.209259951485
0.215281876422	-0.167965730053	-0.233848843133
0.216820225526	-0.15748625419	-0.235943666953
0.216674324225	-0.137738189529	-0.236615512529
0.217518412517	-0.146104220087	-0.236686815499
0.216578006016	-0.117109623643	-0.236911599023
0.216108322938	-0.109288407884	-0.24102937798
0.21811276113	-0.0855915777187	-0.242520147162
0.214832427728	-0.0499164582785	-0.251470154659
0.212745505673	-0.0343399523382	-0.251764074693
0.216491236346	-0.0107820383409	-0.25016638799
0.213150542143	-0.0180237354993	-0.251504534135
0.217357495533	0.00481213597508	-0.249409002466
0.211219187475	0.038229347538	-0.247391194372
0.213840421522	0.0456834628918	-0.24622019463
0.213359275505	0.0570737878117	-0.245963039764
-0.136816109776	-0.0893734550585	-0.140227931024
-0.136681861705	-0.0579707638491	-0.15555157142
-0.138379253501	-0.0479825624623	-0.158730472486
-0.0170938892247	0.122204202723	-0.200819358822
-0.222337551542	0.337239659565	-0.0843359857611
-0.0245914284481	0.119999176888	-0.20031892255
0.21117364091	0.174368336689	-0.173192416823
0.215683403538	0.186242067597	-0.169400398093
0.21501746739	0.321868580071	-0.035488117674
-0.0442113959305	-0.267941954702	0.13287572353
-0.161544838948	-0.194757471029	-0.104728887777
0.0170832668431	0.133422563328	-0.19963860741
-0.243660754347	-0.0064908508232	-0.166390326667
-0.283559718139	-0.0424435333893	-0.133209305827
0.21879824967	0.163907270059	-0.173003708996
-0.333627002445	0.386078621227	-0.0872418553854
-0.0606091234131	0.172263840791	-0.177798138974
0.206483250605	-0.270402992641	-0.194250596221
0.209095648987	-0.262392649222	-0.193915931305
0.208663529109	-0.252807970016	-0.194611360908
0.208230331945	-0.245172867395	-0.197226119734
0.207336035823	-0.224166843295	-0.20615589145
0.210332126308	-0.215249922767	-0.208348436779
0.206887290797	-0.183722972453	-0.230243149034
0.205963491256	-0.156793327349	-0.239373154872
0.206619341878	-0.143466189073	-0.239251087141
0.205972545094	-0.126034574984	-0.238570015414
0.208119669635	-0.107948352001	-0.244336913828
0.205845380368	-0.0860300245029	-0.247403988076
0.209533431906	-0.0752270015062	-0.244461409499
0.208070837043	-0.0657622579533	-0.24804519964
0.205907187852	-0.0369036945698	-0.256679612309
0.209750635938	-0.0263453683913	-0.254408897512
0.206645863412	-0.011562439768	-0.255724647778
0.209248008308	0.00249247653892	-0.25324668131
0.210486823454	0.017343549386	-0.250325030772
0.205608806829	0.0296508679792	-0.251119246905
-0.139801682262	0.103094368729	-0.186797955815
-0.136792035812	0.0855963055918	-0.189114063374
-0.140466622057	0.064209616467	-0.186485519679
0.305152277382	-0.0922788740445	-0.19572493073
-0.153313699493	-0.0592825645723	0.217726619628
-0.018041990255	0.113754858318	-0.202682005827
0.206692092911	0.181175939707	-0.172148387204
0.204793934136	0.190096871818	-0.1710292486
-0.237686498852	0.284726230904	-0.0983803450369
-0.219912658167	0.292002894393	-0.0910385414555
-0.127455519932	-0.133975134078	-0.122674738106
-0.161587221013	-0.171149299264	-0.106351767926
-0.169970432208	-0.13450894576	-0.115200133211
-0.180210717766	0.480355888289	-0.0760364582226
0.284331337327	-0.210759241093	-0.173713762301
-0.244358287107	0.00790126201422	-0.169651545052
-0.317976625811	0.354263779323	-0.0952145910011
-0.36452873871	0.278432619589	-0.0825058779441
-0.365113376083	0.288595119387	-0.0824917150376
0.200364697687	-0.251113886317	-0.195331165075
0.204323980363	-0.238024823235	-0.200422175811
0.201200954064	-0.214489028752	-0.210200980397
0.203785256404	-0.200021951065	-0.221464665416
0.199824811521	-0.189899467554	-0.228046861473
0.200805492545	-0.172892871355	-0.236020447361
0.201878846545	-0.163810403087	-0.239177162509
0.201282698733	-0.149826541791	-0.240840440954
0.205465249708	-0.135664115962	-0.238847599042
0.200495747267	-0.109865859272	-0.245371325229
0.20399012558	-0.101250001401	-0.247808269444
0.202818144001	-0.0934195780802	-0.249252275268
0.204267629507	-0.0542896557403	-0.255053741243
0.199361143007	-0.0430012820455	-0.259106945556
0.200491093233	-0.0149760358212	-0.261013466548
0.198601472858	0.00019624509717	-0.260691347686
0.202273976865	0.0180964445422	-0.254428758347
0.199671489354	0.0101170670468	-0.257360150122
0.200190689266	0.0396835894718	-0.252678013322
0.204154174719	0.0465228969048	-0.250848269291
-0.134484316971	-0.28865106804	0.207525721051
-0.0491130366783	-0.255629529323	-0.237927304593
-0.155887098697	0.0897598267202	-0.185055439586
-0.279292855561	0.14711738192	-0.149610421954
-0.122685598897	0.0469542261927	-0.182656387149
-0.199558115788	0.0545645878069	-0.186280743288
0.205433374019	0.202923152734	-0.169675272611
0.197911525204	0.185821699688	-0.173194958718
0.0749643578259	0.196181123529	-0.178653788477
0.0636327245689	0.535468568439	-0.142518962415
-0.18048607132	0.491518602151	-0.0776230706201
-0.167474759399	-0.155446881676	-0.110236204383
-0.184942608631	0.504538846309	-0.0737006052131
0.423906049134	-0.139754136121	-0.0792390873523
-0.329096843443	0.154750488531	-0.119658330611
-0.36397371387	0.297374715652	-0.084069013162
-0.33464880687	0.272669629123	-0.0949006461483
0.195317845536	-0.283867600474	-0.187694538538
0.199206860579	-0.267099343389	-0.195693029264
0.19553442284	-0.258590236655	-0.196075132425
0.19470281064	-0.239600168697	-0.19915500751
0.197178833865	-0.23158262367	-0.203157225719
0.199212731172	-0.206980275633	-0.216298825949
0.196746170592	-0.135077665413	-0.240734612735
0.197898158498	-0.121632168386	-0.240842234111
0.198009359205	-0.084529397367	-0.250171635942
0.197797084973	-0.0695855345122	-0.250017021932
0.197292434469	-0.0622459228985	-0.25323273432
0.19698380501	-0.0506613635626	-0.258807703201
0.195708147382	-0.0298415601623	-0.263032934016
0.19279091188	-0.014809369786	-0.263978917106
0.197802575398	0.0283845310029	-0.254565319285
0.192541726272	0.0353804727467	-0.255646911677
0.192279320088	0.0542580497103	-0.256327529986
0.0047322228147	-0.262396045624	-0.122166277027
0.0049528672788	-0.262238921007	-0.130882188066
-0.145323428848	-0.211598104907	-0.112767843701
-0.145239555294	-0.221514151065	-0.115740679018
-0.288953604983	0.210010501232	-0.117181563111
-0.287595877287	0.364987027402	-0.0978289609572
-0.244144996031	0.257568492935	-0.107790612467
-0.260892330451	0.180431037489	-0.145426208024
0.190477448825	0.143793964948	-0.181616162236
0.196720746559	0.169305965755	-0.177649408046
0.195737226903	0.161526118167	-0.179329372384
0.196653328187	0.177399909488	-0.174796842188
-0.222844247253	0.364636660881	-0.0783292999688
0.332239811383	-0.218915927036	-0.0865266233383
-0.338534872696	0.131055020591	-0.122470710194
-0.168658179606	-0.143557710181	-0.112877671148
-0.187373815646	0.475338459518	-0.0712610521972
-0.238223456825	0.218924466108	-0.139356831601
-0.241892422156	0.021497661442	-0.173110705481
-0.252654444774	0.376345517109	-0.0893536485243
-0.00837072512748	-0.266093661521	0.0175244691828
-0.25798124904	-0.093045693227	-0.0887006246084
0.189800012174	-0.276153467005	-0.195514463482
0.188627706607	-0.252970344867	-0.197137184483
0.191103080198	-0.220011328213	-0.208350778532
0.191742653878	-0.212420601217	-0.212904269055
0.189479716101	-0.201898365747	-0.222201367637
0.192409737817	-0.178245502832	-0.234675221971
0.190079515148	-0.164550295791	-0.240312673037
0.191498069774	-0.15455902783	-0.242161720544
0.190383738153	-0.144652908189	-0.242445862181
0.189958881135	-0.129378227892	-0.241276777184
0.191953795992	-0.117230944198	-0.243380764796
0.190432567622	-0.105046276207	-0.249071478768
0.190155766585	-0.0921556694046	-0.25302291891
0.187049194733	-0.0752883868038	-0.253560266716
0.190370254441	-0.0659193245958	-0.254877921336
0.189175107018	-0.047109150758	-0.262508880309
0.188913175062	-0.0374075354075	-0.264255352158
0.187192993207	0.00422470122899	-0.262689066268
0.189101820577	0.0162860845934	-0.26108220947
0.190917020421	0.0258359224688	-0.25796330138
0.191158496349	0.046569674562	-0.256239125076
-0.145656504299	-0.18578863016	-0.111158955079
-0.143649044139	-0.167090317442	-0.11368265488
-0.147233251649	-0.14279265533	-0.119615882325
-0.14607488583	-0.1342218824	-0.121796657264
-0.146867510625	-0.125966879541	-0.124246237991
0.199556047095	0.148191419778	-0.179039940587
0.188223153277	0.153223083487	-0.181229811599
0.187856670787	0.167289346196	-0.17945726903
0.187931107448	0.175729541837	-0.176441830849
0.189644943167	0.19013623039	-0.173971912372
0.188343406445	0.213231032651	-0.170694358043
0.0575763032936	0.651149285212	-0.227160691915
-0.167735729946	-0.18201084193	-0.102281337533
-0.187666125707	0.483633456405	-0.0720767526521
-0.211224646203	0.487038789182	-0.055335818656
-0.241235695651	0.0362451994786	-0.174081497403
-0.246961711519	0.360611247278	-0.089277266326
0.421732842028	-0.127752589785	-0.0722824504053
-0.311074064179	0.426469793975	-0.182435495168
-0.30431164714	0.426026912196	-0.190706069886
-0.322572819919	0.0382314466035	-0.146540163021
0.18134141897	-0.262528157147	-0.199354025808
0.184096162091	-0.237372667124	-0.2007491591
0.181498162986	-0.225478913452	-0.207045726891
0.181320213849	-0.208116765837	-0.221495980717
0.184811115819	-0.19034757172	-0.229259929396
0.181445607768	-0.179442148593	-0.234046759359
0.184576327785	-0.172471776511	-0.237263458294
0.181634907755	-0.157993307632	-0.240946621472
0.182586759327	-0.149019193691	-0.242327526884
0.18017615829	-0.139689470871	-0.242901559852
0.181746158591	-0.126498468118	-0.243749220909
0.185747051926	-0.111450057453	-0.247209608518
0.180422650771	-0.0919856428551	-0.256040227387
0.183498342224	-0.0833071207416	-0.254378072999
0.185214922281	-0.0577295071728	-0.260501789556
0.181371421766	-0.0339365343467	-0.2664741867
0.183230878532	-0.0250838909569	-0.266311983305
0.185253093726	-0.00867334228158	-0.264432441188
0.180031109695	0.0128951774974	-0.262986665413
0.182151252713	0.022209096436	-0.26243668607
0.184784583914	0.0326850801966	-0.258960646308
0.180885639591	0.0489613406772	-0.259314423197
-0.115494517498	0.564847970201	-0.117645473926
-0.118050272283	0.0686507266902	-0.192728961296
-0.223424489393	0.32078653128	-0.0864493785736
0.117123871833	-0.277745348768	-0.148066299537
0.182826364918	0.160542944956	-0.181782990454
0.179408318617	0.173609796446	-0.177565561141
0.179879345073	0.18863815706	-0.174726868727
0.331896037043	-0.0453899635231	-0.187580032522
-0.326295361834	0.244027478901	-0.0938635691279
-0.177925431732	0.508605670576	-0.078979960206
-0.397330533192	0.238303638736	-0.0511480037019
-0.240920327371	0.06325989072	-0.172377678454
-0.228435893473	-0.293354568985	-0.112593999609
0.178976993056	-0.243300822944	-0.199435581016
0.178951386625	-0.218202644647	-0.213581805693
0.177293056058	-0.193016373114	-0.230865393631
0.173900190924	-0.114174113659	-0.251472083683
0.179078545255	-0.100170306527	-0.255002542617
0.175443910478	-0.0834303670865	-0.256682052299
0.179214674009	-0.0735240750071	-0.255367721617
0.176314774184	-0.0581787070338	-0.262387448278
0.176800082396	-0.0195190443595	-0.2674378395
0.17545309935	-0.00392917255297	-0.265409965986
0.178837688698	0.00428557681338	-0.263547387532
0.174100731419	0.0186588098539	-0.264498973508
0.17484204139	0.0348665951396	-0.26189789824
0.173292155769	0.0458134284716	-0.260440282565
0.176082757148	0.0555167395166	-0.260159299685
-0.197336336261	-0.184077049298	-0.0844481507514
0.332530496254	0.0205905367218	-0.179625479826
-0.325886829752	0.385016719061	-0.0893726028936
0.0431012882011	0.054559939382	-0.290383119692
0.3377536995	-0.237111716439	0.149058052438
0.171843203075	0.168939980534	-0.180178841738
-0.2057595437	0.21833890134	-0.149636054319
0.164054657746	0.174153461253	-0.178243017189
0.176359549648	0.201458752625	-0.175213250384
-0.184415037931	0.445242595945	-0.0635996738893
-0.186846265362	0.464884272122	-0.0690064208906
-0.214709589898	0.473204499795	-0.0546631658281
-0.366210922463	0.33499437648	-0.0766483435297
0.168869796775	-0.28329221642	-0.195222779508
0.171264072275	-0.270498631791	-0.200887138358
0.173305711188	-0.25849781038	-0.200403293556
0.17241479675	-0.2491414581	-0.199861387331
0.170822403622	-0.237572253948	-0.20161651264
0.17279625176	-0.228642030545	-0.206420463212
0.17161477586	-0.212458261563	-0.222385254493
0.170412316573	-0.222326064802	-0.211434665825
0.17244499651	-0.200364619781	-0.231069819241
0.17323196861	-0.181038027693	-0.234389692489
0.168502627979	-0.173362207036	-0.236973310863
0.17000684355	-0.162501590015	-0.239891298289
0.169954286722	-0.153190493428	-0.243429844181
0.166941648911	-0.145348578301	-0.248312180238
0.172234132527	-0.138091997963	-0.247149618901
0.170305048726	-0.128183653316	-0.250257883215
0.167570809719	-0.119765410617	-0.253401495376
0.171843543994	-0.100813585555	-0.25825595243
0.170306457805	-0.108486328974	-0.25569968047
0.171971219313	-0.0659888369869	-0.259558257174
0.16839920366	-0.0589914378703	-0.262770838993
0.17119183688	-0.0506554191764	-0.265534344865
0.17251299691	-0.0416149592568	-0.267210494857
0.169057053763	-0.020519584294	-0.269735948254
0.172348281702	-0.0112632373626	-0.267500493267
0.168942690635	0.0285412066491	-0.265172622458
0.168864553775	0.0669869269733	-0.259215406729
-0.155042525146	0.126442414779	-0.184873778486
-0.150448829923	0.0960293736456	-0.185878769441
0.323035775851	-0.00211098339242	-0.191650907976
0.171729706735	0.185898036739	-0.174817965268
0.169233539002	0.19738981943	-0.175458160479
0.209310880058	0.153652492342	-0.176937905739
-0.172429007792	-0.168143064427	-0.103121248859
-0.178780511815	0.433401781875	-0.0585133352473
-0.242031306934	0.0481252799285	-0.173126481536
-0.247273900226	0.338245015727	-0.093677478305
-0.35541996626	-0.0216734254339	-0.0880670065404
-0.312305516972	-0.262431021048	-0.0344988340227
-0.368044596207	0.34283884446	-0.0740818431743
0.161485091571	-0.26453777036	-0.202957047784
0.164877342397	-0.254675726294	-0.201800960735
0.163096069984	-0.246405330228	-0.201348760338
0.16384395104	-0.218175804415	-0.217691604761
0.162688111153	-0.208979748314	-0.22846696106
0.165061862139	-0.195534787126	-0.235622168174
0.166922164044	-0.185566474309	-0.236766430089
0.165469802094	-0.13779520236	-0.251311087008
0.161653631597	-0.126764615631	-0.255488976163
0.162133053794	-0.115705010713	-0.257675023134
0.160772863484	-0.104971983815	-0.261270666959
0.166391441264	-0.0890889338348	-0.260785230969
0.165307637879	-0.0764730948013	-0.258338983992
0.16105535593	-0.0523766327355	-0.266147997397
0.165231283735	-0.0348699155003	-0.269959011808
0.160751471415	-0.0197824155704	-0.271816867964
0.164280590151	-0.011417787262	-0.270359410042
0.165880523978	-0.000403738383446	-0.267771696232
0.160357503789	0.0112311063244	-0.269233754813
0.163051255294	0.0356267750088	-0.265663241493
0.165000911576	0.0476864743757	-0.262516804212
-0.154309942788	0.482922472221	-0.0899302658393
-0.0163070428872	-0.264058312256	-0.0849431908994
0.174728680043	0.0924603464346	-0.249085373165
0.162162549708	0.203004006764	-0.175176277701
-0.168231564527	-0.212746525356	-0.105984095325
-0.396175021127	0.245016213324	-0.0551451930706
-0.0257979011468	-0.285967636451	0.275859971723
-0.186964966589	0.453076725725	-0.0656328461378
-0.223149016551	0.129036262123	-0.171570928589
-0.199377618836	0.165097191408	-0.168104066775
-0.209495999629	0.442107127468	-0.0572296404275
-0.15094011922	0.47155486183	-0.0848110453256
0.160723208543	-0.274639864131	-0.201595992399
0.156933459357	-0.256980741581	-0.203588940954
0.158918409962	-0.235882101935	-0.203765163215
0.159368764834	-0.228220173331	-0.208248106933
0.155876292669	-0.205902063534	-0.231871141901
0.154796542146	-0.195353481355	-0.238329809829
0.160050920725	-0.189234683755	-0.238845084136
0.160383963138	-0.180075398946	-0.238980401144
0.158132194758	-0.15483380092	-0.24696473437
0.158446479859	-0.162362642999	-0.242723735858
0.157437143442	-0.141346533465	-0.252265866292
0.155359296339	-0.131489360868	-0.255621081813
0.15501688909	-0.11289391211	-0.261198016522
0.155042847783	-0.0954599093906	-0.265154220801
0.157995254421	-0.0852305031342	-0.262595443367
0.158326604178	-0.0651277177849	-0.26132943125
0.155744912077	-0.0583390614026	-0.264863220925
0.159097990018	0.022254173763	-0.269879909322
0.153648475863	0.0489001845765	-0.267187372814
0.155197476853	0.0655651639407	-0.263821258098
-0.161251072986	-0.0455298706327	-0.147734619013
0.0428994996732	-0.265013652242	0.0453549717074
-0.164652964494	-0.0282970614727	-0.157513609182
-0.161768003987	-0.0202073822485	-0.160936852914
-0.164364262931	-0.0124203452438	-0.165292564128
-0.163304178092	0.00593717483201	-0.174882953039
-0.164152582623	-0.00174292456408	-0.170926477891
0.159157163769	0.147045946795	-0.188208692281
0.0894898621605	0.190616853774	-0.187186154226
-0.105746884926	0.514170662126	-0.121066210375
-0.391160994137	0.267419959061	-0.068687269461
0.158196906993	0.194779021927	-0.174709559649
0.153170015476	0.188326781883	-0.175905130616
-0.30849272736	-0.261888191173	-0.0436852667118
-0.162414215914	-0.111438338823	-0.124312248829
-0.171258108491	-0.200744516643	-0.102757662998
0.00598098274285	0.17567617492	-0.187739657415
-0.220944484096	0.122462451744	-0.175184695468
-0.230599698834	0.216199517012	-0.143902239946
-0.259877588092	0.433296403351	-0.138444537411
-0.364435553604	0.363789261634	-0.0732925318631
0.153206269966	-0.286510756808	-0.195753831973
0.152817148827	-0.26616622841	-0.204276792177
0.152927058039	-0.247544603281	-0.203064826459
0.148791746081	-0.240874077085	-0.203375192348
0.150664256947	-0.226677523813	-0.210170882972
0.152098754213	-0.212030845534	-0.227387217197
0.148596371987	-0.186589629716	-0.241675589866
0.150680409859	-0.166000289061	-0.241713007353
0.148408052586	-0.158155449876	-0.245124300402
0.153296828374	-0.149381066807	-0.249955322334
0.150153983232	-0.139247299588	-0.253761846321
0.149805632023	-0.124610757635	-0.258640259499
0.153083947238	-0.076590469254	-0.262118563756
0.149293570773	-0.0683692958057	-0.262973685591
0.15288469219	-0.0476599853473	-0.269757429308
0.152034358002	-0.0391087354228	-0.271900267715
0.149020163219	-0.0227696805434	-0.274281105622
0.148563431456	-0.0126566168111	-0.274167288713
0.151754571184	0.0103862241635	-0.273235714195
0.15170009792	0.0194824247157	-0.274123425083
0.151602172818	0.0333308070953	-0.2723172319
-0.34424316027	-0.00468207790615	0.178248342674
-0.282528653363	0.135662865987	-0.148301643515
-0.167283019615	0.488500359751	-0.0852397749391
-0.167487031773	0.497006255542	-0.0868240141974
-0.164990148011	0.516070612841	-0.0885984067891
0.312613864172	-0.235691381698	-0.0849213562274
-0.142028987051	-0.104800016724	-0.132086963954
-0.148168539813	0.18084927769	-0.168440289182
0.383730100872	-0.272871139451	0.0240556206502
0.0151280850612	-0.26446314765	-0.00771730161924
0.145731486436	-0.2592134896	-0.0801126691115
0.14204659143	-0.259510808497	-0.0719419370706
0.148002281002	0.207489278751	-0.173129705239
-0.0110729262937	-0.265808521436	0.004275236281
-0.22351843985	0.0947530711823	-0.181712408162
-0.244216594824	0.0924012519852	-0.167564500441
-0.247474188203	0.310046633845	-0.0962597701502
-0.308167917706	0.379284912572	-0.0940119891133
0.144523295244	-0.284839926418	-0.198281031229
0.144379304941	-0.27210406083	-0.204298689884
0.147497199748	-0.260577212696	-0.205247813779
0.142804399897	-0.247649637272	-0.205117628625
0.141993163707	-0.22881273378	-0.208609706649
0.146594586789	-0.220862184349	-0.216397317511
0.144949395793	-0.202427544199	-0.236834415881
0.145270626456	-0.208796648016	-0.231617135439
0.14254249141	-0.194190604821	-0.241097652458
0.14721319971	-0.176776260882	-0.241232739228
0.142040277276	-0.168004243488	-0.243223763578
0.142064517421	-0.114629992654	-0.26292524223
0.141510531256	-0.0812967111451	-0.265799117443
0.147012790856	-0.0603733243537	-0.266152727101
0.145183178906	-0.0520811420336	-0.270215934111
0.143855607113	-0.0426199353812	-0.273037558997
0.14641333714	-0.0313376288711	-0.27425402375
0.144842669861	0.00296958472498	-0.275235423117
0.143555663645	0.0199258150424	-0.27903371114
0.144603309619	0.039362923476	-0.274644276784
0.142252736476	0.0502607961619	-0.271831362458
0.312744748778	0.0395086146548	-0.193948826893
-0.183635516524	-0.160010295222	-0.0980731375316
-0.179924691451	-0.172456092092	-0.0976862542082
-0.180467365992	-0.147928108562	-0.104102384377
-0.183599884956	-0.114439138561	-0.112585587231
-0.181994616028	-0.126659369343	-0.109812124343
0.129968358067	-0.271164413888	0.0240538188081
-0.342408029855	0.00958582566337	-0.117252777218
-0.149102340988	0.500320589913	-0.0981447631713
0.144313388608	0.224987170021	-0.165911935476
-0.216117998293	-0.236245864126	-0.0970572135158
-0.214334840786	0.410829663921	-0.0567917017266
-0.229354934408	0.0730008474157	-0.179488024562
0.371365982711	-0.165304012817	-0.0931906890513
0.135718701321	-0.282864546416	-0.200477508492
0.13656514656	-0.265006180967	-0.206214099476
0.139573445228	-0.255153617331	-0.20610808486
0.140379715294	-0.239380800238	-0.205167235358
0.137380329835	-0.218596280021	-0.221565179505
0.135734309907	-0.187198178633	-0.2430665581
0.138098459692	-0.176844506976	-0.243361575361
0.137282839936	-0.156862197809	-0.248717134011
0.139806178905	-0.142191898881	-0.253506537307
0.140723709315	-0.129265755471	-0.258171699743
0.13973467589	-0.0986599745851	-0.265526529848
0.137866711592	-0.089340586299	-0.266017395591
0.137703289744	-0.0651310413713	-0.266339877466
0.13456958151	-0.0572238764719	-0.269745181131
0.137917950283	-0.0482705275921	-0.27228753557
0.138245658363	-0.0277529637327	-0.275858822726
