-0.193610050884	0.10843612321	-0.187337752587
-0.214011844239	0.396376917293	-0.063864772469
-0.188598229725	0.0607348728362	-0.186407871433
-0.190550479035	-0.0360283688948	-0.153095403984
-0.314132230286	0.135256694447	-0.136340350213
0.364781131861	-0.185751715913	-0.0881694041199
-0.192297209751	0.0138799911526	-0.182309044077
-0.1884020736	-0.0143845937761	-0.167348737658
-0.175549760439	0.12488051922	-0.187288510626
-0.177653238473	0.149295994706	-0.181417176658
-0.181037370031	0.0969613764505	-0.185194789238
-0.177190066849	0.178076392485	-0.169171401145
-0.218237272323	0.00282871025395	-0.176729009291
-0.280885506208	0.613883715986	-0.428922099109
-0.311004115469	0.114595968155	-0.144729463739
-0.264870189371	0.0187573090766	-0.168070926851
-0.366768271028	0.392837736355	-0.0708829193148
0.35935461813	-0.223319127658	-0.0802691855588
0.354166310333	-0.200859130819	-0.0862493000772
0.354018496247	-0.188285243936	-0.0910794803542
0.359758391293	-0.176660333475	-0.0944873571294
-0.311724896012	0.0917076445969	-0.147428594972
-0.256474808647	-0.0831430492108	-0.100388821625
-0.12764813395	-0.0676716897964	-0.151224803229
-0.127144137602	-0.0281047747526	-0.164264483635
-0.280280435039	0.183838066927	-0.133607976097
-0.168734562317	0.114779358694	-0.188127132681
0.352682963728	0.0227624914422	-0.169250311728
-0.155962459999	0.158333692081	-0.179821315864
-0.178733096045	0.189866169363	-0.167111757709
-0.173094238991	0.166172324077	-0.173265598887
-0.193903648139	0.484012949598	-0.0686048362459
0.353507115398	-0.257598471829	-0.0550990613876
0.352069726878	-0.242290231619	-0.0693491406151
0.353294914879	-0.232150895851	-0.0757526186607
0.353521947843	-0.213511042327	-0.0844073184011
-0.214885797739	0.421661028359	-0.0557646616835
-0.256813825862	-0.0949676133129	-0.0858845088125
0.349181313321	0.00639834706544	-0.171961848039
0.349562170806	0.0450592239677	-0.170656930753
-0.187541067303	-0.0609240859278	-0.138594712142
-0.299923736431	0.136847921368	-0.141635601541
-0.221080337566	0.445303014592	-0.0563844056589
0.344105566963	-0.252511606796	-0.0632207411858
0.341281179284	-0.236370033866	-0.0756334359001
-0.34072119195	-0.00914093660285	-0.107814184125
0.0309052090125	-0.292904614426	-0.194995302357
-0.312352637698	0.0371124728261	-0.151909718244
-0.105190782217	0.164435951761	-0.176100091786
-0.118088220278	0.0398947528215	-0.183087351331
0.342555102006	0.0270216507844	-0.173085820401
0.340179220744	0.0379728674062	-0.175149207727
-0.120066462394	0.179417529906	-0.174738120034
-0.15557229299	0.00671150705482	-0.173500822462
-0.20134890841	0.0557124904742	-0.186644001576
-0.298559796112	0.206292141996	-0.11531625384
-0.303918731566	0.214310571197	-0.108701645741
-0.431666243153	0.349718717743	0.207567753019
0.335362852967	-0.219603906092	-0.0854367051972
-0.287099639418	-0.0936507597456	-0.068357167014
-0.129628340916	0.492215750672	-0.102094049619
-0.124659236525	0.482281380915	-0.09819919355
-0.126006401979	-0.17518035066	-0.116302940376
-0.161274626816	-0.047371727616	-0.1469689798
-0.158609802741	-0.0585218762601	-0.144699992328
0.452907068409	-0.197558042469	-0.06421882407
0.336838436715	-0.0145155534387	-0.183903265507
-0.0256578114118	-0.265616489059	0.0351308988763
-0.392527570027	0.318856240973	-0.0696233669362
-0.284216599722	0.492947465947	-0.38408246756
-0.148248432222	-0.156590793893	-0.114946138663
-0.148508566387	-0.168991503889	-0.112031971404
-0.153783978822	-0.118266796821	-0.125400394158
-0.158919054066	-0.105921518349	-0.127615073545
-0.160278285615	0.466108041112	-0.0782380639612
-0.282894295452	0.301483719477	-0.102432228122
-0.120085050891	0.497600811221	-0.107821955462
-0.233025403024	-0.0997729737685	-0.0880534854645
-0.311875037411	-0.00651257181322	-0.139691004245
-0.122789493253	-0.104167651423	-0.131744607608
-0.15040837531	-0.0964191253546	-0.133721724618
0.331904272565	-0.0246266429296	-0.188326933678
0.330552394254	0.0378163756346	-0.182085426055
-0.148165527593	0.0496859822242	-0.186578375243
-0.148778808316	-0.20517249213	-0.111430904691
-0.3272133423	0.261517239328	-0.0970548113875
-0.233454554526	-0.0566963643715	-0.143143870974
-0.261287830034	0.175402426704	-0.149155986255
-0.284621416776	0.281341582862	-0.103186938264
-0.189201879863	-0.116476084578	-0.108741780019
-0.215109248784	-0.0901980467482	-0.102809302299
0.325002864955	-0.252055412314	-0.0685412147814
0.324083482025	-0.241280429052	-0.0770406087257
0.32684327675	-0.230927080571	-0.0817321801782
-0.297932248199	0.240748861078	-0.100197938136
-0.215392315831	-0.0779017342372	-0.118626155797
-0.189031466833	-0.0946851014276	-0.113314057448
-0.0844539009286	-0.283848738398	0.0703262210445
-0.156684979496	-0.0794629851207	-0.139674445049
-0.0992792325517	-0.281699399	0.111749392665
0.303459326215	-0.114460835853	-0.201820489597
0.301982482822	-0.149879863933	-0.199420018319
-0.336913872262	0.252782373922	-0.0930302027236
0.358222504063	0.0360878685823	-0.166823818594
0.321931405854	0.0416917177091	-0.187697971793
0.451277726751	-0.21515964814	-0.0445708739527
-0.144797729774	0.0218651111589	-0.178653832528
-0.149069749262	0.0615612963832	-0.187328683081
-0.146479503004	0.0826284462063	-0.186562431402
-0.149008604993	0.0936847176797	-0.186269151431
-0.188155380195	-0.130638258737	-0.103965947187
-0.253348326449	-0.259302213071	-0.096956843158
-0.310990075867	-0.0205280654792	-0.132382443096
-0.110329580817	-0.267092843082	-0.227435943212
0.302902267236	-0.19923813877	-0.171645828931
-0.206301284633	0.0786151945401	-0.187953933016
-0.232164265263	-0.022998423098	-0.164197629671
0.318059321825	-0.0501295649688	-0.198140930787
0.317825339556	-0.0299562509678	-0.20000790461
-0.38912102362	0.330695678645	-0.0674462718611
0.00846843177566	0.507115584897	-0.102248857322
-0.14540169807	0.114216553991	-0.185835916326
-0.160284420312	0.49505635518	-0.091436864395
-0.203858608681	0.136056149266	-0.18110278623
-0.30361441211	0.270772906016	-0.102335655189
-0.313044294343	-0.0297159501992	-0.122906810808
0.311167556573	-0.261775584415	-0.0648381539474
0.311037131061	-0.242620658497	-0.0802997799143
0.298218309386	-0.206926460353	-0.164820296299
0.287807889744	-0.265689875346	-0.0726200970445
-0.101128497276	-0.289552749805	0.132999414465
0.266369194032	0.0299454575255	0.281775017809
-0.130438224886	-0.289144698621	-0.219456207932
-0.170194033862	0.0612173784295	-0.185347847023
0.0643850209974	0.0531631616173	-0.291183284163
0.311160940328	-0.0704022695574	-0.197353155163
0.307863979939	-0.0523215200987	-0.204559929966
0.308128774392	-0.036353749196	-0.206845014204
0.30842371244	-0.0234565807325	-0.20592966652
0.30988269698	-0.00615294283566	-0.203458093773
0.256813244686	0.0378504034953	0.281951969673
0.319344750112	-0.171997397319	-0.176789264347
-0.241602112716	0.38019986571	-0.0857019624676
0.026063140797	-0.262010350378	-0.0617599060432
0.0204605648028	-0.262657741445	-0.0437043130209
-0.13686925905	0.47463005443	-0.0903568147979
-0.142849978796	-0.0223528055108	-0.162790467517
-0.338943068718	0.167333967608	-0.108405962999
-0.160314204316	0.507501645649	-0.0927556713354
-0.213578003043	-0.117404235042	-0.0804019768616
-0.33389498646	0.124629225351	-0.130034406217
-0.402653470991	0.255445721043	-0.0567073506133
-0.303882140009	0.282999033379	-0.101928128161
-0.137200766318	0.448670052082	-0.071760877373
-0.0590263877301	-0.15534027194	-0.129259822093
-0.174360294852	0.0799592104816	-0.184687265464
0.183685777034	-0.283848301674	-0.139098981761
0.305179756682	-0.0841157954087	-0.197256623887
-0.194893563586	-0.156532488012	-0.0907250319209
0.306149653371	0.0590943081182	-0.196430488266
-0.391217596818	0.236024107774	-0.0556746336951
0.0346011356606	-0.260996811161	-0.0909771851309
-0.138604285826	0.171963765119	-0.176316438192
0.220497570881	0.125888373415	-0.192555018824
-0.281214471597	0.549667447071	-0.420572932783
-0.157808862069	0.521117799866	-0.0940866187811
-0.187814919029	-0.171191579286	-0.0925799833563
-0.203971648592	0.154740094031	-0.172713601031
-0.206179542788	-0.199359364304	-0.0813106135761
0.297398598582	-0.266162301421	-0.0640849406044
0.143670642957	0.185165445385	-0.180824756323
0.295510568323	-0.19135121558	-0.185183781832
-0.240993239727	0.265839882322	-0.105321619497
-0.0337000952848	0.0573586299628	-0.263021361277
0.295414532883	-0.13968930586	-0.209636781641
-0.064372381625	-0.143623764975	-0.120475947495
0.298382456096	-0.0632306587382	-0.210576232402
0.295179946996	-0.0390434089235	-0.214617234307
0.29693739795	-0.0263225254031	-0.212301610162
0.300347056712	-0.0151172556197	-0.209094343913
0.297597925595	0.0124876852332	-0.208437387725
-0.135369843513	0.0924490175808	-0.18976306439
-0.140967491169	0.133808154594	-0.183712636013
-0.139561378118	0.149578137029	-0.182680411715
-0.144989453287	-0.049106350963	-0.155263705046
-0.144956857058	-0.0603724935065	-0.151042391455
-0.153037234356	-0.0411309657228	-0.153342289577
-0.292690873754	-0.0634192169994	-0.097856348929
-0.324564017427	0.11116739182	-0.139420500934
-0.309202985007	-0.0486969498457	-0.103162400646
-0.223408921588	-0.0976696620547	-0.0931496049565
-0.222708169735	-0.10956286826	-0.0794002198783
0.292577745767	-0.183037876739	-0.192951567907
0.29044555628	-0.165831677546	-0.206310507755
0.295778968644	-0.172307625237	-0.195976573562
0.292798985638	-0.153291366458	-0.209546911343
0.0730505226981	0.0410980825495	-0.293142723239
0.293171012995	-0.0804120486963	-0.213380413428
0.290481538833	-0.0579409182063	-0.217317246512
0.289998163313	-0.00216326348497	-0.213889573061
0.260183313502	-0.24344796472	-0.182592638264
-0.138177439163	-0.0952779326306	-0.136504743266
-0.15546849291	0.534633590954	-0.0942808210062
-0.141491648247	0.508014645596	-0.103524172456
-0.148326312828	0.526489525356	-0.100372693945
-0.221913223194	-0.0540739790383	-0.145843658097
-0.292257119784	-0.0227517504444	-0.144763176852
-0.302598690434	0.31031062934	-0.103742332845
0.139602408975	-0.282859279851	0.251187378326
0.285929028349	-0.136072835849	-0.215255521843
0.28329584866	-0.111287808399	-0.213946806221
0.287157829809	-0.0985744361835	-0.214101688809
0.282989714618	-0.0886052353456	-0.220224848411
0.282401636813	-0.0683824391054	-0.223702356632
0.283444310109	-0.0205929619798	-0.216704595298
-0.170180081672	-0.0895860007761	0.1905833467
-0.139179976061	-0.162700909906	-0.11621881341
-0.135238416283	-0.151049876183	-0.118687382684
-0.14474499358	-0.0766220161452	-0.145016331422
-0.354789681351	0.156126394475	-0.101243290202
-0.158943322184	-0.162908441878	-0.110444382028
0.00901660064468	0.679759091952	-0.168890919915
-0.205928237017	0.186806853192	-0.163941779713
0.325229444148	-0.0158961549902	-0.192462627942
0.28009592774	-0.191323576059	-0.19297404336
0.277043719141	-0.17653960606	-0.208459476016
0.277725987224	-0.153676011754	-0.219495345191
0.28073461532	-0.0475953118888	-0.222302859143
0.280199287264	-0.0306820593878	-0.219588725418
0.280187451076	0.000491226811923	-0.218280361748
0.276366563989	0.0233669810855	-0.219373030925
0.346603130713	-0.0118403571927	-0.175394183347
0.0197944192135	-0.261588414706	-0.0778080729363
-0.143262225291	0.540339390017	-0.102521120847
0.386258753216	-0.243380312199	-0.060510369549
-0.17402845516	-0.040923016376	-0.148291984528
-0.234079358079	-0.259322469682	-0.103831397188
-0.336645460273	-0.0322904084356	-0.0993603818375
-0.323918595378	0.161456840547	-0.121343814062
-0.392733084132	0.247343508661	-0.0590395316805
0.275321463141	-0.202009704137	-0.185128842054
0.27601355055	-0.141857305325	-0.219793302294
0.273133332257	-0.110424117327	-0.220058470819
0.271392805163	-0.0900227013973	-0.226144320269
0.273474322156	-0.0617289917249	-0.228840238829
0.270305506303	-0.0229479473082	-0.223253814968
-0.348289595613	0.480724970302	-0.0359309877662
-0.130884068293	-0.115721400468	-0.128114162399
-0.297337548219	0.0659881584589	0.229435396021
-0.120391741482	-0.0369228713505	-0.161687184141
-0.147296171374	-0.0865204921588	-0.139228951364
-0.125517866452	0.0683455970303	-0.19070681546
-0.162322236377	-0.272283909799	-0.125063936551
-0.125110329217	0.0146020147574	-0.177096650073
-0.191091246705	-0.197098792891	-0.0915526381767
-0.305077617741	0.460817352436	-0.328273599532
0.268209492499	-0.190607270135	-0.198222532615
0.268031406353	-0.171502444248	-0.216075992441
0.264276551287	-0.153749663031	-0.22509123787
0.26730256016	-0.125432619702	-0.22082844796
0.267094390758	-0.101031698847	-0.225279230658
0.26450481716	-0.074081202169	-0.231083639292
0.26385643749	-0.0566776847268	-0.232586427691
0.268581461155	-0.00782058804636	-0.223617524512
-0.134503664814	0.0341636532332	-0.18270210919
0.273154462055	0.117770816608	-0.190272194444
-0.140766588095	-0.0105656594563	-0.168003489355
-0.189780837545	0.49792516485	-0.0713552049873
-0.0163407081506	0.0982946076366	-0.222642087702
-0.204755409254	0.21814171364	-0.151568220004
-0.21678335786	0.484092655925	-0.0529217009733
-0.243821824747	-0.0839857898397	-0.103364381577
0.298558470837	-0.254746597273	-0.0778266854714
0.263032636123	-0.212877039077	-0.191729880409
0.262575675271	-0.181846730737	-0.209281336474
0.262646853045	-0.14012883281	-0.224710061942
0.260751466121	-0.11149852417	-0.224776891797
0.257976470959	-0.089755492491	-0.231258190051
0.25778749958	-0.0376594967585	-0.232034425691
0.257348121499	-0.0199902032457	-0.228864350716
0.261402499204	0.00279539988329	-0.228130940747
0.258944380801	0.0183865870703	-0.228324475868
-0.132090908921	-0.198628752243	-0.116363415227
-0.133745287227	0.0485105252059	-0.184891607066
0.259614299613	0.126067375311	-0.190846539526
-0.126985248713	-0.141128876419	-0.120916304186
0.33927715177	0.00437655378059	-0.17815770397
-0.24000886171	-0.067274493799	-0.130304163733
-0.0559546002755	-0.290981363868	0.0629951967305
0.253201904687	-0.189079541818	-0.206837000147
0.255944108464	-0.168947007749	-0.220867611186
0.250826681682	-0.142663463981	-0.229252535396
0.251153397375	-0.105931181297	-0.230703054204
0.252322894385	-0.0782700544942	-0.234772431813
0.255203214367	-0.0630873339782	-0.235918795204
0.254313516081	0.0316404664055	-0.230306837172
-0.327235081381	0.310027636046	-0.100367268433
-0.226687271942	0.316682583196	-0.0886376185732
-0.123652162541	-0.16068691396	-0.118010827016
-0.151241387587	-0.00375679643926	-0.169756985888
-0.173827942694	-0.125370184997	-0.116388230374
-0.304059564109	0.369444161685	-0.0970773605381
-0.333708157911	0.238844889352	-0.0896267222581
-0.197753772344	0.422941820823	-0.0521630763989
0.249957786113	-0.240543685944	-0.190642182344
0.249996880179	-0.229378127842	-0.195806223794
0.244437738451	-0.219349134852	-0.200447243106
0.250085127672	-0.199967301777	-0.201905518643
0.244454431642	-0.169686606006	-0.222140393856
0.248152926826	-0.132087214972	-0.228544485316
0.244723597991	-0.117819916298	-0.229337661903
0.2476219978	-0.0526424091053	-0.239462095381
0.244642164086	-0.0335997240229	-0.237456783554
0.248575169228	-0.0103131790741	-0.234845765276
0.245848563196	0.00668018948123	-0.236306659585
0.244805722276	0.0271131073725	-0.234924505773
-0.0373141948555	0.0875753361252	-0.213946056211
0.230070395849	0.0655447545344	-0.239508056719
-0.129979352026	-0.0118104640033	-0.168330647983
-0.132250538713	0.00252827297934	-0.172329631548
-0.141605622385	-0.0353793863478	-0.160450754507
-0.338210396764	0.316950218134	-0.0972032581491
0.0938938696242	-0.268194506995	-0.209293648438
0.239429945582	-0.241432807006	-0.194201530859
0.243152133574	-0.189370410509	-0.214183986806
0.240208343823	-0.0989487139176	-0.236870994286
0.238601283002	-0.0702363160428	-0.242515370523
0.238498889404	-0.041437357394	-0.24234696592
0.237350692518	-0.0213014757631	-0.239211222977
0.23809842786	0.0173026089434	-0.238531069184
0.236647169424	0.0355715179519	-0.239389384086
-0.253528726217	0.442034290637	-0.0734345102222
0.488694542256	-0.058814294497	0.107714959583
-0.113765023524	-0.0540726759745	-0.154889512964
-0.320713028613	0.649603832214	-0.399614351108
-0.339248256044	0.283809203523	-0.0951127040791
0.219973780555	-0.284677542828	0.173851285437
-0.244715205386	-0.0372415667747	-0.153147973514
-0.302784857146	0.396694360952	-0.0986464896058
0.232424111193	-0.25829602217	-0.188739253257
0.235554153903	-0.163785838122	-0.227533855778
0.236906124696	-0.151116228569	-0.231420372062
0.233123360403	-0.108535108152	-0.23593458969
0.231792700306	-0.0622280579427	-0.24674310057
0.231311871112	-0.0094185766528	-0.243481420982
0.231744672831	0.0027460949335	-0.244160021287
0.235293818681	0.0535217905837	-0.239825639312
0.206998181925	-0.264063864516	0.244506170434
-0.315081336585	0.469905964198	-0.329776109491
-0.119605180507	-0.288112175038	0.155775585272
-0.196482561234	0.0238896888774	-0.184081857574
-0.169597971793	-0.105941297548	-0.123402620835
0.0567697102482	0.15728036278	-0.196194839456
-0.0190560508885	0.171897516663	-0.1898103988
0.22959475899	-0.274608627848	-0.184004124182
0.231218158939	-0.234898503883	-0.199941178309
0.230529888973	-0.223179251761	-0.204357171163
0.229822309459	-0.208287382065	-0.208423610369
0.22952347797	-0.196467441576	-0.217151074376
0.224915591998	-0.180139240518	-0.225179054382
0.224771692147	-0.136080575232	-0.2347233565
0.229361316879	-0.125581246512	-0.232616376733
0.224403503976	-0.0839429987727	-0.242053373803
0.230172726964	-0.0481405497539	-0.24703960383
0.224778419583	-0.0215792090235	-0.243556069736
-0.133790537587	0.529263999162	-0.109459404357
-0.134962417076	0.54547786281	-0.108319776165
-0.348117576803	-0.0130075981041	-0.0995282156524
-0.398224231016	0.272384164605	-0.0667501333767
-0.204463150906	-0.185844491305	-0.0791035523429
-0.366726439716	0.239033885255	-0.073468178577
0.223166285176	-0.265492199645	-0.190476154667
0.221551113179	-0.246436846357	-0.195826922969
0.221266310683	-0.168296336107	-0.23134053292
0.221559054548	-0.114853325233	-0.236052413728
0.224083288051	-0.102766159781	-0.240017245318
0.220403927759	-0.0685179167618	-0.24527610387
0.22192947253	-0.0363702530238	-0.246887287711
0.219078178731	0.0123199227622	-0.248189281119
0.219229725793	0.0267412922611	-0.244543702886
0.223005970888	0.0488260916967	-0.244062255813
-0.138737765201	-0.178106495357	-0.114434657669
-0.130067176369	0.187013973799	-0.170264072467
-0.305793493797	-0.259181541635	-0.0497534288063
-0.126852767232	-0.090067674247	-0.139456811963
-0.395682552177	0.261107910698	-0.0646892463449
-0.239953216569	-0.0142718479879	-0.164921061917
-0.313174220709	-0.262541072012	-0.0408001170932
-0.27428039567	0.578075042193	-0.430394746201
0.212752682022	-0.204924677956	-0.215475300583
0.216694912718	-0.194504778929	-0.222440030027
0.212727354628	-0.175391670004	-0.231478057147
0.217353864165	-0.153066541396	-0.236645847148
0.212141476561	-0.139690672545	-0.237910365732
0.218013274471	-0.126477975246	-0.235859154408
0.21266725325	-0.107831921712	-0.242870950465
0.211438019867	-0.0599335652297	-0.249549867913
0.212497904921	-0.0280322640155	-0.252240803043
0.21331371639	-0.00478729499013	-0.252343545768
-0.0208506716542	-0.1012629582	0.212003429551
-0.135841085365	-0.084254472748	-0.142563151048
0.211339953429	0.184123295607	-0.171581349563
0.214259908033	0.323766891151	-0.0362547781794
-0.0477449625693	-0.266608078189	0.138606617316
-0.21454192942	-0.26268735114	-0.111969562873
-0.117498791607	0.00359624335037	-0.172151637975
-0.0587667344348	0.172298631742	-0.180489574398
0.207534035851	-0.243677931159	-0.197728219052
0.211001004489	-0.233494107186	-0.202739471524
0.2098236795	-0.219489984668	-0.207499997498
0.210017971783	-0.0935435118074	-0.246974625028
0.211066389298	-0.07981880285	-0.244938608557
0.210494418646	-0.0417893082498	-0.253313950137
0.210617057502	-0.0170223140248	-0.254051459238
0.209011580752	0.00879607503102	-0.253208684933
-0.290630047718	0.614816112043	-0.41756030737
-0.137611669532	0.105032405615	-0.187807272488
-0.137925744964	0.0665402465006	-0.187619516989
0.406059197823	-0.258889402828	0.0425502439625
-0.0198605901854	0.120678022652	-0.20187045821
-0.124421409279	-0.130622354622	-0.123163946311
0.28484407077	-0.205015357337	-0.17671788469
-0.365766384796	0.292835003013	-0.0830205273326
0.201658248332	-0.196695057446	-0.223440790369
0.20320527848	-0.16682601137	-0.237728704233
0.199423144724	-0.15238501792	-0.241805948568
0.203295554435	-0.11964782502	-0.240142129376
0.201956385951	-0.103909365418	-0.247154276586
0.200680865151	-0.0846088270548	-0.249973744052
0.202790016295	-0.0714351606937	-0.247194283011
0.204548414942	-0.0522269407121	-0.255581695542
0.202553866527	-0.0305618758246	-0.259892668965
0.199133885772	0.0141676422228	-0.257561941798
0.203343711	0.0309330550774	-0.252779830839
0.203970997358	0.0422379452724	-0.251380399577
0.139788725183	0.153663645262	-0.190998635495
0.0075808505318	0.505143334144	-0.0899758176531
-0.158312535546	0.0791375464413	-0.184986634808
-0.115588465758	-0.0227507953632	-0.163734169514
0.19890135604	0.163721294412	-0.178963856943
0.200855672541	0.176622125268	-0.175400212478
0.198624069202	0.188305244949	-0.173433030312
0.0623516404269	0.538765340419	-0.14648462882
-0.186138251785	0.508028072809	-0.0734209026233
-0.182041921831	0.488200585417	-0.0767248419347
-0.199441413874	0.0981166580278	-0.185752293996
-0.20088175869	0.119456719524	-0.185980375486
-0.260600831159	0.00499459238378	-0.166089326096
-0.335375321902	0.271063257146	-0.0953121073425
0.196960465708	-0.260289192808	-0.196183398035
0.198694751321	-0.224489671681	-0.205774452298
0.194020872183	-0.205166105066	-0.217529094712
0.197878176971	-0.187421050322	-0.229138487338
0.193616366646	-0.130778559325	-0.241459492898
0.192552179989	-0.0730980230682	-0.251919100593
0.195999485028	-0.0141340228921	-0.263668636238
0.195818266469	-0.00108220077757	-0.262444117109
0.192222971242	0.0326330882773	-0.256927208256
-0.340718923001	0.190803996214	-0.0968123998616
0.186922837184	0.151247949463	-0.182438771812
0.197035824151	0.207663930463	-0.171589620072
-0.240619051401	0.0267546772792	-0.174816812272
0.191285531825	-0.276677220911	-0.194997932623
0.18966454602	-0.249072844396	-0.197364895606
0.187497465382	-0.237416138526	-0.200428830548
0.188816746729	-0.197985788273	-0.224303766166
0.187280525067	-0.17418168559	-0.236695864297
0.191819756825	-0.163262567312	-0.240823685607
0.188076981608	-0.143016877664	-0.243191344472
0.191954928181	-0.109666092429	-0.246462672562
0.191398462701	-0.0973593529954	-0.251964735122
0.186311402844	-0.0849366670789	-0.254409772801
0.191269301582	-0.0560942588197	-0.258719551271
0.187024145388	-0.0249007620811	-0.266039906053
0.191533988087	0.0534092614887	-0.256944304689
-0.189996441724	-0.107204196602	0.157945773687
-0.142917048992	-0.142931072549	-0.120040974237
-0.142694584996	-0.121579961428	-0.126628661999
0.187418096585	0.163482615964	-0.181291473569
0.186500561595	0.198626662354	-0.175109886742
-0.0155529762875	0.0644010123395	-0.273596697857
-0.340386862057	0.218809702728	-0.0830133596202
-0.234793894243	-0.0474532740221	-0.149302530712
-0.167037395066	-0.181441366362	-0.103197398596
-0.209022084373	0.491276563536	-0.0573067725052
-0.326077388007	0.04387143104	-0.145778756483
0.18426374844	-0.263871400654	-0.199280081367
0.181570776077	-0.220664346415	-0.209608390168
0.184398688818	-0.188620020727	-0.229940958231
0.179655998157	-0.153076595115	-0.241925436159
0.181175914515	-0.129315404465	-0.243807820356
0.179859510958	-0.115068304655	-0.247877296214
0.182445473793	-0.0367395130765	-0.266367670404
0.184117811315	0.0112020585788	-0.263157038846
0.180738763063	0.0270772408013	-0.262855751978
-0.175987174347	0.200713073417	-0.163522800418
0.182650635767	0.0620198665171	-0.258923278319
-0.195660871741	0.0451529190654	-0.18441500065
-0.118755732673	0.101635863992	-0.191556824152
-0.172588809294	0.48285266478	-0.0811137701351
0.180868863926	-0.261194919732	-0.11034603706
-0.213701220364	0.335511731771	-0.0815901458448
-0.324404960834	0.247165386816	-0.0953086790916
-0.171283994909	-0.170413748516	-0.103082008136
-0.177273282152	0.512745669039	-0.0801435751904
0.178859990901	-0.274779909662	-0.1981941967
0.176600987746	-0.231472872022	-0.203558143468
0.175705748593	-0.14172193535	-0.244310075155
0.174463788119	-0.103759424166	-0.255453975754
0.174566434	-0.0644480093732	-0.259799296488
0.177762622125	-0.0494345495899	-0.265133564651
0.175683664359	-0.0145352935649	-0.267875348986
0.176655984662	-0.00188155566728	-0.265539468682
0.176665480366	0.0520760542672	-0.260625041091
0.1750878401	0.07095334388	-0.258028786091
0.220536991213	-0.138152845234	0.289568542596
0.177952412073	0.182577506766	-0.175874589553
0.175566335763	0.203603762945	-0.175752875968
-0.161945062972	-0.128553600697	-0.121191449231
-0.189149705272	0.44663318326	-0.0625597324047
-0.294138925742	0.497836294359	-0.387341289865
0.169990577065	-0.266156759952	-0.202057398732
0.169586241344	-0.250976239256	-0.20064767698
0.17197897079	-0.21654005307	-0.216291762288
0.171618548071	-0.2071565857	-0.226059794224
0.172132863514	-0.189833097701	-0.234172959235
0.16908051167	-0.168828352711	-0.238109707093
0.167617907491	-0.150517335281	-0.245381375103
0.169356085575	-0.12839952557	-0.250996254994
0.169861701584	-0.0902604697148	-0.26023589974
0.17070839592	-0.0777943196268	-0.257966514249
0.169001817736	0.0185891174128	-0.266441264308
0.167760526885	0.0307300885742	-0.265878422891
0.166471108504	0.0610337229026	-0.261735259327
-0.151828567028	0.123921516807	-0.185413323666
-0.105372165958	-0.286918135387	0.209220449947
0.322594623772	0.00124247663526	-0.192203275172
0.170454720571	0.191786738535	-0.17528136206
0.211986262996	0.155350703639	-0.177860511751
-0.161952379878	-0.14458400999	-0.115363694057
-0.167658894857	-0.200147152822	-0.104861346204
-0.184829004033	0.46144900231	-0.0689009088244
-0.213362355154	0.453728655226	-0.0578762988901
-0.239852982602	0.0550035986448	-0.174927620286
0.164361983561	-0.277706814452	-0.199895721504
0.166128741782	-0.238937190919	-0.201265895638
0.16086888753	-0.228821511397	-0.206713074851
0.165406372555	-0.112920161196	-0.256467822289
0.160514956158	-0.0621714668219	-0.261725799587
0.160189584599	-0.0403764700212	-0.27004440258
0.162749029523	-0.0245237183257	-0.272047713473
0.164810419769	0.005196100745	-0.268178151293
0.164672289415	0.047225073182	-0.26322953171
-0.0196547306524	-0.262823368218	-0.0774124541236
-0.0817977255887	-0.27304074953	0.257523944477
-0.159423929628	-0.261781289236	-0.130825700284
-0.00446491670086	-0.264192574225	0.0130685224335
0.441668263167	-0.135893173701	-0.0799090830295
-0.393010824149	0.353123198642	-0.0535928516143
-0.200413301152	0.166779092326	-0.168496927716
-0.367785197122	0.35532431705	-0.0736629910341
0.159861545737	-0.257898094836	-0.203894742296
0.154433314785	-0.248384729245	-0.20348639001
0.158111829311	-0.201162266882	-0.234418416567
0.157327052563	-0.183789036021	-0.240234776794
0.157366569352	-0.140100084236	-0.252685260252
0.159471784741	-0.124669180309	-0.256827323311
0.155306686502	-0.0829382399486	-0.263907168701
0.156315456389	-0.0510500771767	-0.267837826976
0.15638831824	-0.00677816861091	-0.272550651149
0.153191165676	0.00683574613648	-0.27251305323
0.156682138379	0.0236473308534	-0.271637364592
0.154220606371	0.0603799634455	-0.265741459987
-0.165994789639	-0.0335189932243	-0.153625076845
-0.162985231456	-0.0186549585324	-0.161497791215
-0.16500069063	0.0174797577649	-0.179916059331
-0.164662884977	-0.00174743270881	-0.170465067986
0.155915440413	0.196902986966	-0.175131750198
-0.167137199099	-0.221740263452	-0.110270345197
0.17315472063	0.154030231687	-0.185359022018
-0.223064323536	0.121908173143	-0.17614650626
-0.23143393194	0.220761104826	-0.142647157508
0.151413923449	-0.211330502168	-0.226842259524
0.149479051746	-0.192205900458	-0.240842470197
0.148928674305	-0.163960202934	-0.242369502446
0.15325242557	-0.10937870144	-0.262893833514
0.147747963355	-0.0705721625265	-0.263031864812
0.147443052714	-0.04219515406	-0.272722626975
0.150751678665	-0.0311295227491	-0.273636189326
0.148380427511	-0.018214143113	-0.274950409548
0.147560452823	0.0436917897145	-0.272511444501
0.216749584967	0.202299908513	-0.167813604794
-0.167433333693	0.516852488084	-0.0875914648178
0.152275857684	0.153916288471	-0.188744513089
-0.18048293246	-0.254911614938	-0.118742394351
-0.307356934648	0.3831537925	-0.0947118336465
-0.363765365658	0.371193882095	-0.0740686759332
0.143087390988	-0.275152107096	-0.203792835157
0.147663624521	-0.233150145574	-0.205445077439
0.145552492312	-0.223463422926	-0.212476156248
0.145813771228	-0.204355529072	-0.234387550064
0.143930434681	-0.181816010296	-0.242989085615
0.146972791319	-0.145785373983	-0.251387567757
0.143923900542	-0.0987818238059	-0.265713644369
0.14115247333	0.0219017248443	-0.280780461262
-0.0371513820148	0.00604620069628	-0.275321644841
-0.185554389553	-0.159058982803	-0.0971346004612
-0.183647225094	-0.145290283328	-0.10283177278
-0.206791672064	0.322717950139	-0.0807202316449
0.143014839751	0.231356494352	-0.162806147032
0.281868113226	0.127496682781	-0.185571077066
-0.209341397236	0.410102439539	-0.055869306155
-0.232151137788	0.109094943615	-0.176130631548
0.141183418835	0.0586394375224	-0.271158404556
0.140721159211	-0.262028145238	-0.206302118517
0.138680461548	-0.241024151182	-0.205904993197
0.137918254811	-0.218224269816	-0.220153730959
0.139032371603	-0.158849412392	-0.246987160976
0.137436826515	-0.136887082649	-0.255803267635
0.139610188133	-0.124561566381	-0.260203609729
0.138384754688	-0.0792617866	-0.266429037224
0.138226925867	-0.0651389718862	-0.266287690199
0.139430831854	-0.050401746732	-0.271501433426
0.13550994069	0.0445037073775	-0.278222437377
-0.268381966956	-0.0855641939945	-0.0902663899784
-0.265215419339	-0.0659123287884	-0.118718086144
-0.267319440964	-0.0772803250742	-0.0999704991253
-0.267553046904	-0.0123039855904	-0.159659471977
-0.265060495774	-0.0501987014519	-0.135313984598
0.13393914291	0.167236931588	-0.189186667346
-0.149182579475	0.485196409506	-0.0925807923594
-0.180688733771	-0.242817112447	-0.115218739371
-0.246763819773	0.298165275623	-0.098832798446
-0.231098481503	0.0589481317767	-0.17994552554
0.1298180172	-0.28149171658	-0.200699634846
0.130030438338	-0.227286159955	-0.212217446513
0.12922458261	-0.211370396144	-0.230362701586
0.132061482776	-0.198921264037	-0.239119878033
0.129013083951	-0.175954607506	-0.246004885982
0.130648819151	-0.109049557023	-0.267945534361
0.129065459661	-0.0183355457853	-0.278843760822
0.133735632253	0.000171916137155	-0.278156182798
0.127390359827	0.0550361115674	-0.276780603524
-0.22609779716	0.456545363507	-0.0536312023035
-0.204082115024	0.479954600385	-0.0620023953223
-0.20833606349	-0.252793458649	-0.110852620021
0.428807481938	-0.138713610063	-0.0802212941782
-0.227087746544	0.0167173864725	-0.179129998682
-0.285918634092	0.0312988264372	-0.162753063498
0.127810846307	-0.263022813476	-0.207714655122
0.123750467107	-0.24110060225	-0.208604713212
0.124322442478	-0.154325725058	-0.254251060297
0.123884261609	-0.0967401381509	-0.270537845319
0.125268969775	-0.048717996151	-0.274381095084
0.123429713359	0.0130169990558	-0.283724887372
0.121500171656	0.0414368838095	-0.284081253672
-0.117172050164	-0.0763369927486	-0.14512841054
0.0506630068336	0.658645486008	-0.222644511778
0.121156031397	0.163163095418	-0.192030270831
0.124822446913	0.179454445351	-0.188645053615
-0.296375242417	-0.0726274856164	-0.0815332018928
-0.163672182147	-0.0902998051962	-0.132010909596
-0.17826767096	0.00988815648706	-0.178794324246
-0.310464550643	0.350363007342	-0.0981990925448
-0.284599850588	0.0438913654001	-0.16289770842
0.121463251473	-0.253426286033	-0.20940616126
0.118021213906	-0.195319788152	-0.241635419049
0.121295128735	-0.166852992015	-0.250933281199
0.120730088294	-0.127347235284	-0.263424098131
0.121058786255	-0.0720893646312	-0.270356003647
0.121273651945	-0.0598543448875	-0.274367355585
0.118348505492	-0.0318218254772	-0.278833102946
0.117021087544	-0.0105143770244	-0.284719202564
0.119947029405	0.0242397770499	-0.286779796127
-0.228501824394	0.349961793836	-0.0848491679354
-0.153098149859	-0.179488856608	-0.108350860829
-0.244990883822	0.206702388463	-0.144694509829
-0.243020375247	0.196063235735	-0.149551686669
-0.152875989554	-0.192894782429	-0.108584513654
0.11961700946	0.152300548651	-0.194930695516
-0.167126713136	-0.0719194890772	-0.13705133795
-0.242030249106	0.160448301586	-0.163292205198
0.109632810827	-0.282028083706	-0.20277626936
0.11318479117	-0.234095163762	-0.211153993379
0.110599801874	-0.223616016268	-0.221908805109
0.115469246478	-0.208634588064	-0.236358187115
0.115067182024	-0.182280287788	-0.246425462979
0.112482867618	-0.135114207087	-0.262551695004
0.11009981326	-0.116008888809	-0.27089585805
0.113205764638	-0.088520503473	-0.270697595669
0.1138092182	-0.0516122057644	-0.277003486601
0.11106554509	0.01320060183	-0.286341114296
0.113435784848	0.0573898624813	-0.278569838625
0.0798217882487	0.162889231942	-0.194994789286
-0.248866389108	0.150094375558	-0.164215149378
0.224100309327	0.178215351265	-0.169657739577
0.111761326152	0.171868467884	-0.190520441062
0.108217334176	-0.263118727928	-0.209547086522
0.103824617938	-0.240288386901	-0.211071798182
0.105454260517	-0.176843942552	-0.250474147496
0.102702371982	-0.157685794522	-0.257221595342
0.108342048379	-0.145636733216	-0.25845905182
0.10588456907	-0.0962690006343	-0.273639902368
0.107594494818	-0.0681432368178	-0.276237610179
0.102777695109	-0.043010729286	-0.279675176978
0.106556273309	-0.0318474875414	-0.281829228835
0.102901137277	0.00430080489031	-0.288713737808
0.107460302485	0.0411855387077	-0.286272987941
0.0251319039709	-0.218902607037	0.288966568681
-0.330887222685	0.395551895481	-0.0891599421738
-0.219487936552	0.40766829353	-0.0604358118066
-0.180232035224	-0.199557854702	-0.0990792731999
-0.304522598998	0.333331283154	-0.10104906004
-0.294441729572	-0.269651803291	-0.0789200721732
0.0999404886197	-0.252945608015	-0.211938229034
0.0970981895626	-0.219905508368	-0.228263348178
0.0993672774272	-0.227876236955	-0.216602657434
0.10031595889	-0.209813938136	-0.236624517919
0.0977629733173	-0.134569256959	-0.262951487917
0.101562901314	-0.0850531384513	-0.273002538108
0.100839734903	-0.0216538732576	-0.285519012582
0.0966726546142	0.0263799208705	-0.28900462565
0.0991780831873	0.0573393718746	-0.281170443372
0.0925304297441	0.159402484246	-0.194766447051
-0.248124572734	0.116440784794	-0.163928743489
-0.309248822584	0.293677748414	-0.101708062798
0.115272437009	0.188822033702	-0.189207434702
0.100514475588	0.178155623916	-0.191794894826
-0.354657468564	-0.0186313237841	-0.0906300766243
-0.234316807415	-0.0801514362178	-0.110791878812
-0.204529998044	0.431580670006	-0.0551932903491
-0.267026088921	0.0531879894916	-0.167630497249
-0.302530184811	-0.276332958327	-0.0696573101599
0.0961482987799	-0.193361246456	-0.242994025397
0.0933014190581	-0.170980402864	-0.256977097616
0.0939916468947	-0.100602818168	-0.274730335833
0.0901622016097	-0.0797975047053	-0.274615214834
0.0900183192411	-0.0687388627007	-0.277884226195
0.0922259008486	-0.0542885136809	-0.280964574759
0.0924625117478	-0.0383610639327	-0.28585857982
0.092190881364	-0.0149115216062	-0.288021635684
0.0910691631977	0.0104430976169	-0.289727371105
0.0935385547387	0.0445494854885	-0.28680955907
-0.334556663651	0.363096590711	-0.0896571395502
-0.272220466828	0.601754442228	-0.435291964065
0.0244972819348	-0.291967806941	-0.208331587669
-0.183725274628	-0.0835202409293	-0.122588555069
0.243473433078	0.188559560636	-0.161214229993
-0.015374074321	-0.264590131566	0.0122738134263
-0.18700205735	0.428452752163	-0.0535622264213
-0.24101350991	0.175447452004	-0.158046219995
-0.307474130338	-0.270916081249	-0.0526600586682
-0.321563076315	-0.0573816594482	-0.0813816998652
0.0865385322893	-0.278419891325	-0.207572070759
0.0875952841363	-0.256266401803	-0.212857513897
0.0865215990537	-0.214664010903	-0.232162307044
0.0845859336083	-0.187147309062	-0.246883835215
0.0834559462188	-0.177530832589	-0.253447765328
0.0858419524426	-0.159286383336	-0.261366586275
0.0854222105425	-0.146757880713	-0.262536979621
0.0891250162535	-0.122426407425	-0.26797428336
0.0867930458136	-0.111218609678	-0.272849246872
-0.30451187125	0.231417686135	-0.100038690432
-0.261155268056	-0.0741940966718	-0.109272548957
-0.161927726429	0.0433008402791	-0.185788038924
-0.310013415831	0.253851637606	-0.0993307955275
-0.290431746929	0.173309617109	-0.13351163555
-0.286435471966	0.19260969537	-0.126801230299
-0.26311320771	0.305197330638	-0.101086075259
0.077672102403	-0.2618172519	-0.21285951794
0.0833627082181	-0.242939229817	-0.21304404071
0.078196591237	-0.220496086255	-0.225180372408
0.080016511432	-0.228753191078	-0.215610897756
0.0791620869146	-0.206977325549	-0.236961922928
0.078680343314	-0.136691703717	-0.264942396215
0.0795542048671	-0.0884238711814	-0.277227352206
0.0817057348825	-0.0606148648404	-0.281524129143
0.0818122939171	-0.0330479265122	-0.28914632069
0.0819616594994	0.0212727754741	-0.290355814868
-0.112890878224	-0.00592173374416	-0.168815870069
-0.246437909246	0.0852991196307	-0.168710247079
0.0792228832055	0.179980911282	-0.189467399033
0.234469038933	0.135164563282	-0.191921157387
-0.248561346122	0.102193816754	-0.165978473326
-0.309033763743	0.19369589906	-0.114892697601
-0.159113584521	-0.283167898699	-0.147920422736
-0.375580049416	0.180231467888	0.144636696016
-0.228985786818	0.364706836241	-0.0828583256241
0.070864900477	-0.252889483059	-0.214870340563
0.0762088598724	-0.197034375412	-0.241902899482
0.0758164382525	-0.168557010695	-0.26002181549
0.0733391780939	-0.124437993474	-0.270742236375
0.0725638338682	-0.113684208593	-0.275871715012
0.073814083784	-0.0518869272109	-0.28794130519
0.0732470647708	-0.0408664484355	-0.289144983041
0.0736624681953	-0.0210587973966	-0.29107434089
0.0745059596359	0.00193574136606	-0.289983849052
-0.0208633464713	-0.266297889221	0.0495727779228
-0.113392654495	0.0693166371758	-0.194321569504
-0.270318169821	-0.253962366261	-0.0889023035555
-0.290938546393	0.522200059584	-0.403003591533
-0.336595954367	0.156600060483	-0.114771975894
-0.192217380079	0.47013046412	-0.0679513657832
0.392692731892	0.142947101111	-0.0899371783425
0.103779481049	0.196429704569	-0.187867439809
-0.0538569966611	-0.290677270391	0.0335940488179
0.0417948522615	-0.291792896537	-0.179337113746
0.0682396549638	0.619324357958	-0.228030966164
0.144983265221	0.142064451564	-0.192359620929
0.0656144806417	-0.269624132083	-0.212975598403
0.069765660212	-0.240236976415	-0.214606135029
0.0672077032991	-0.210697519589	-0.234426875015
0.0702319516391	-0.147249599654	-0.264478334176
0.0688099738487	-0.103138557725	-0.279800507475
0.0684762304652	-0.074965756108	-0.282432495839
0.0693262570489	-0.0638530691026	-0.286864345634
0.0672185942973	-0.00750410633857	-0.290730789524
0.0638749583602	0.013153899818	-0.295499871291
0.0174889079551	0.158267519526	-0.193544602904
0.0549272580567	-0.292127223588	-0.191881962546
-0.287261728706	-0.261189618293	-0.0823817480728
-0.306832704125	0.176531155144	-0.123573806591
0.410033063767	0.0926882982916	-0.0890535053191
-0.292326169014	0.488039457171	-0.377218322939
-0.186310311167	-0.0703404528494	-0.131549279471
-0.170130852727	0.459587802431	-0.0727619388674
-0.174237645046	-0.143266224942	-0.110306248347
-0.114932176453	0.125510836207	-0.185254444807
-0.309755126547	0.125630686329	-0.14181831698
-0.310376842764	0.16253140566	-0.127918636789
-0.279996162072	-0.287143293601	-0.0914856680561
-0.0660233355904	-0.27946733123	0.149587293904
-0.248308665079	0.568014754217	-0.421118246131
-0.0304484737065	0.167987855555	-0.190569729501
-0.175706548287	0.367268896927	0.0977191114618
0.0593892041376	-0.232014497938	-0.216718291774
0.0634082925543	-0.218282297434	-0.226502110635
0.0589079948937	-0.154658674841	-0.262803447297
0.0580180174174	-0.140526800262	-0.268615979099
0.0577936948574	-0.0996206923748	-0.282979807153
0.0583358791749	-0.0671675258929	-0.288628190269
0.0606136813935	-0.0501792674109	-0.291642158296
0.061971869055	-0.0337292325251	-0.29268948447
0.0588748558587	0.00215494148226	-0.294578541294
0.0626699664676	0.0294590872893	-0.295445721994
-0.240864660239	0.352754458944	-0.0894319733459
-0.307091579507	0.153044537627	-0.133581923268
-0.127642312833	-0.186847678185	-0.115945877295
-0.307946491575	0.102351217148	-0.148125515418
-0.273250765958	-0.097827513302	-0.0745008440519
0.0514982019589	0.166002740198	-0.191052055532
-0.151119853037	0.16812749511	-0.175851158973
-0.326573884074	0.208015665233	-0.0987589048452
-0.244517424007	0.325542136185	-0.0943124768779
-0.269592861677	-0.29274267344	-0.0958426196367
0.0763257822855	-0.291199469862	-0.181498881511
-0.0597910214492	-0.270142205436	0.153543563042
0.0546721149146	0.59086167866	-0.202497746703
0.0567804202013	0.606705753642	-0.213364132424
0.0584967646617	0.623728926372	-0.222761137333
-0.196608638169	-0.00454529097356	-0.172650693931
-0.104711724068	-0.278301731625	0.229259949856
0.0534519048917	-0.273383610201	-0.215309822708
0.0522351838514	-0.262317299822	-0.217517490025
0.0561123825037	-0.195310492044	-0.243086795176
0.0574136972366	-0.180696220604	-0.249612575067
0.0570563337892	-0.165998229326	-0.257137961235
0.0547754725228	-0.129922414099	-0.274275996429
0.0527608241515	-0.117187790316	-0.277966215992
0.0569199646653	-0.0801620479222	-0.286181132168
0.0537956592001	-0.0233337985138	-0.294147712817
0.0543921305618	-0.0117719187443	-0.292593949042
0.0523501266215	0.0110914212543	-0.297655619376
0.0556830152296	0.0396231542884	-0.29502456938
-0.24439554234	0.368393335949	-0.0885380393851
0.176546109239	-0.290236488496	-0.0194687917469
-0.305852672033	0.0752417965856	-0.151022259549
0.192284210598	0.0677504979418	-0.254926059384
-0.275224959827	-0.0648158728529	-0.11205234144
0.0504195190371	0.641625541937	-0.221220810728
-0.289186418206	0.511641826283	-0.399978404888
0.0476616506096	-0.244831499523	-0.220793585092
0.0470665892531	-0.205241024625	-0.23631678952
0.0469563332744	-0.155162681046	-0.26214675792
0.0446164560272	-0.0982162281572	-0.284175127186
0.0471026850103	-0.0495560677226	-0.293764449449
0.0502750925453	-0.0370235805542	-0.294792719353
0.0467724978847	0.0263772416371	-0.297691811601
0.0508098328719	0.0584226608878	-0.290114920724
-0.251129712988	-0.0255558686092	-0.158310096351
-0.308236065816	0.0521371358219	-0.152588919062
-0.18353349115	0.0474981218161	-0.184293427005
-0.21078279815	0.172136462469	-0.16448895889
-0.247205291563	0.00584314413909	-0.168827444297
-0.274518791653	-0.0529698403466	-0.126502876013
0.0442330243712	0.58221636817	-0.189047011398
0.0420141685607	0.59557727474	-0.196741820082
0.0451279755144	0.6241977218	-0.212525114106
0.0408205255361	0.648397369709	-0.213886796754
-0.371807850726	0.229789572796	-0.0658169330628
0.0390723287275	-0.267346720116	-0.220095521254
0.0387826403722	-0.228127553204	-0.222110395819
0.0447812907408	-0.215354671639	-0.228652472021
0.0411875522166	-0.188551701798	-0.244522494002
0.0392506822651	-0.17469740347	-0.251558552312
0.0385070255424	-0.163412043701	-0.256709836776
0.0426795345125	-0.109445729716	-0.278772558855
0.0406572490072	-0.0878602416997	-0.287625971142
0.0401876461611	-0.0759826779045	-0.289906610498
0.0375766190639	-0.0382999419131	-0.295737287631
0.0432986689306	-0.0271813990976	-0.295583022575
0.0432904882675	-0.0147808097797	-0.29367359601
0.0401287122357	0.0155273420282	-0.298586865601
0.0384431930984	0.0364377827646	-0.296838662978
0.320892506937	0.0288610169553	-0.190121845619
-0.273410972645	0.00354003463444	-0.161636290012
-0.370393374457	0.262875413908	-0.077800749826
-0.303193406914	0.00424932987998	-0.149932318118
0.0302126840176	0.693482140959	-0.177596046449
-0.280647754205	0.324098180182	-0.102758429884
-0.179175326307	0.0231391968651	-0.183594433795
-0.165560786018	0.151850568812	-0.181212626143
-0.26899174625	0.076763197834	-0.165666442248
0.0431933351481	0.671258392423	-0.213748138645
-0.2808697852	0.637221914479	-0.432200137445
0.458787642598	-0.174194900865	-0.0730976597018
-0.316747477693	-0.274926019329	-0.0423530562092
0.0350896230699	0.60902782459	-0.199644295658
0.0353704738099	0.633696508222	-0.207305837776
-0.373170654365	0.284204488307	-0.0788760003067
0.0363450881369	-0.23989833224	-0.223565939654
0.0345777972922	-0.209253214075	-0.230914904915
0.0368420578213	-0.140755401166	-0.267412669214
0.0370389268103	-0.128347050353	-0.273137650585
0.0350065572609	-0.0539264241881	-0.292970152408
0.0324734635351	-0.0209107539385	-0.29570282091
0.0329691715882	0.00509926318831	-0.295676883938
0.0327657103421	0.0269954853476	-0.297468246623
0.0347320507091	0.0495792268717	-0.293627299354
-0.308558834444	0.0174417283734	-0.152025186262
-0.249286347313	-0.0558039187964	-0.139444256864
-0.0185983906658	-0.0742062860421	-0.265995297734
-0.150843121768	0.146034467861	-0.183355900851
-0.00308042745051	0.647740725508	-0.175160140486
-0.32909134261	0.217682915538	-0.0915911058521
-0.211647775933	0.116976486967	-0.182218738837
-0.217965924999	0.47138318644	-0.0541877299145
-0.262173015857	-0.0583798564216	-0.128739533282
-0.245605455691	-0.106930181079	-0.0748573252647
-0.276449928713	0.0244122327352	-0.16533597764
-0.30547911965	-0.0414797828742	-0.116858103777
-0.252627186769	-0.276204458807	0.0871349084616
-0.265206702072	0.499521656915	-0.322910790793
0.0551977003498	-0.291546788294	-0.179351187625
0.0308202111274	0.56999050763	-0.174836241593
-0.196371182902	0.0849532705833	-0.187176144926
-0.369828299898	0.319950588848	-0.0796119796801
0.0320222754301	-0.219250761545	-0.224438840581
0.0309863547865	-0.193482099603	-0.239113130172
0.0284967315485	-0.158539656376	-0.255315762973
0.026160338763	-0.144889851853	-0.261282713583
0.0271611092908	-0.111461203529	-0.275615573044
0.0277350084477	-0.0870147276345	-0.285520945235
0.0273549347687	-0.0429912029479	-0.295071450583
0.0300955771304	0.0615579117094	-0.288068269644
-0.272934910335	0.0426257420124	-0.167319964278
-0.250206537484	-0.0699707462309	-0.122580466506
-0.116454071746	0.0272631249429	-0.180973162519
-0.1629414334	0.124914743138	-0.186454883659
-0.115789982688	-0.0858978513891	-0.139901755657
-0.159942900865	0.105829010937	-0.187198725933
-0.211027053965	-0.108409016485	-0.0882380607616
-0.259865093408	-0.042132751098	-0.145932958985
-0.275522213107	0.0670453006769	-0.163887524813
-0.120507946402	0.535919124386	-0.11776009866
-0.198667448436	0.0694609870372	-0.188435077936
-0.245700626763	-0.260555908449	0.0986253962241
0.0280782562662	0.584480741877	-0.1822312363
0.0235653939988	0.596814565308	-0.187397099176
0.0247224971859	0.62183111964	-0.197243861341
0.0260451193788	0.637456507695	-0.200427839354
0.0257668705181	0.650078952367	-0.200852825313
-0.305863091167	-0.0562070647585	-0.0936609370373
-0.165245206375	0.532119059268	-0.0869660133301
0.0212311397235	-0.268360772639	-0.224928063309
0.0213562105207	-0.245669934191	-0.228034232684
0.0204757701778	-0.216189856217	-0.224567083654
0.0224427454316	-0.205330078863	-0.230431757955
0.0214857452086	-0.172181110546	-0.245871994459
0.0245395997524	-0.133402386611	-0.26608105479
0.0230826234094	-0.121293545711	-0.271167897288
0.0219309785878	-0.0728090090889	-0.28890289823
0.0203941149095	-0.00932097621805	-0.295913711141
0.0238490920581	0.0193127669459	-0.29670471665
0.0216879714561	0.0471646727264	-0.291353405595
-0.248729474058	-0.0907907113021	-0.0935374615854
-0.115552126419	0.556151293869	-0.120417039007
-0.314737766644	0.451156232437	-0.297176615616
-0.0468422335127	-0.200750522545	-0.202922984886
-0.163235736375	0.139624565416	-0.184610463852
-0.164470325833	0.176129282787	-0.170110605727
-0.115549644585	-0.182216554828	-0.116825049594
0.0165518631331	0.643061447051	-0.192882949134
-0.275934849387	0.148698437952	-0.152694866108
0.0266375200174	-0.262831171294	-0.0264295715022
0.170322789583	-0.255199124567	0.175862407694
-0.114631244486	0.605404203026	-0.0786768828972
0.0184505381062	0.56641272203	-0.168572765643
0.0213552824166	0.578302866936	-0.176050324502
0.0162207707101	0.589372635403	-0.180220495182
-0.111245246005	-0.104547265185	-0.130317232541
