-0.416666777421	0.423163098801	0.00512355020363
-0.391861932311	-0.025784621752	-0.00273185007616
0.112528241107	0.327174334967	-0.0260201935333
-0.193057410816	0.370237502772	-0.0510060495776
0.118666455961	0.333026016066	0.0352143660573
-0.0203075418011	0.283405163199	0.0990453562637
0.126367280902	0.328951912278	0.0904584731231
0.143192720994	0.334051602263	0.00173356943087
-0.249749035422	0.58657402982	-0.437183596844
-0.192158649094	0.488703994189	0.0241888144026
0.420225261314	0.117672385923	-0.0375380265899
-0.363334612558	0.357679059545	0.282076179983
-0.333145997128	0.556678704099	-0.172718767104
0.190002131085	0.333865543958	-0.000530033560356
-0.345953687493	0.488991027293	0.00673901536959
-0.352729097835	0.316913066896	0.295695278448
-0.460415299425	0.320979166082	0.0899035246677
0.432815457038	0.0404657013218	-0.0352878056554
-0.263714204854	0.527689911936	-0.190259058885
-0.338014682808	0.410297867774	0.248166018756
-0.261676189661	0.537673953727	-0.228418474925
-0.0552393240805	0.26899520715	0.121242695247
0.0794272338849	0.636338403402	-0.23601010931
-0.421929277625	0.156234181765	0.0766370219807
-0.320661760771	0.255160806439	0.296711608205
0.410039542291	0.154192330627	-0.0288771517823
0.151185403534	0.31450016938	0.133409616847
-0.0952865791401	-0.135654358656	-0.120572939628
0.434696810933	0.0785030731457	-0.0193615020667
0.439286611478	0.0119936849925	-0.0157025682315
0.20382707033	0.210404226654	0.207887688353
0.173599935561	-0.210675634629	0.270592041425
0.424238848992	-0.0361358116894	-0.0620161274916
0.189227819619	-0.0917207341278	0.309987299236
-0.0163307748547	0.300646435568	0.0470517138259
0.0458914291051	0.317994412554	0.0110570729656
0.160268753654	0.336762146994	0.038009502776
-0.28356572373	0.120962285359	0.222760059293
0.204866327321	-0.186740338345	0.277384900436
0.0162612687158	0.288639489748	0.118217416774
0.156675378132	0.0304668252562	0.322834083927
-0.261253363988	0.0726906280849	0.243694082514
0.420465448035	0.088196547099	-0.0634684603827
-0.444805727538	0.35427419426	0.065976575776
-0.25949511585	0.145245257061	0.22276575597
0.109531467199	-0.21162884186	0.261498105502
-0.439278398314	0.347924799813	-6.49488089575e-05
-0.246017800311	0.00963810075449	0.231145215614
-0.239156660624	0.176338854838	0.208932251763
0.233166477854	0.159486664409	0.243153958331
-0.038516228445	-0.204749681779	0.2650295254
-0.307630928446	0.470735580131	-0.350277194841
-0.224047195098	-0.0337341508371	0.221149357908
0.109621071629	-0.115377974349	0.312076813127
-0.213003655649	0.0324742447492	0.243222002172
-0.208846914584	0.105466583311	0.233876719122
-0.260075776002	0.454599304043	-0.152414657637
-0.0412892122386	0.558768618095	-0.155328630902
-0.204281454641	0.200641349198	0.192130780003
0.442284812486	-0.0210332137931	0.0121598019535
0.455742292047	-0.230102896278	-0.00875278566252
-0.196342426334	-0.000741330587124	0.234993540547
-0.26781417719	0.42112806637	-0.126293197573
0.193383468594	0.257151438597	0.190682204532
-0.193373635624	0.0642741023575	0.242442933369
0.203701501453	0.105240292519	0.278409924589
0.168138168965	-0.181827183974	0.293367533219
0.0218390216655	0.306326378094	0.0822771058473
-0.187903597006	0.139696784729	0.224209815507
0.430365777748	-0.125101859378	0.152848008737
0.0198533399642	0.270077120383	0.157714108496
0.274870309393	0.213165441903	0.191918883026
0.151460712315	-0.147835779389	0.302232825811
-0.162772084307	-0.205675168835	0.209479063055
-0.159557915949	-0.0102313274307	0.230036188808
-0.15843152225	0.188572709748	0.204417278291
0.10097641673	0.31560945241	0.126541211315
-0.150779118284	0.253989941259	0.143007382903
-0.148610524478	-0.0475911909829	0.223285821882
-0.145133142678	0.155835415929	0.22091930625
-0.144165133583	0.217849081039	0.179050164495
-0.142718059532	0.0845644266576	0.229640823844
0.247871605403	0.23506377858	0.188948818719
-0.185413121766	0.440117633859	0.0406332960717
-0.131483679496	-0.0810688788079	0.217691459577
0.130745486487	-0.0838748545938	0.317903847804
-0.12848888137	0.565990124272	-0.0249798015004
-0.122514095059	0.0440273316622	0.227925591013
-0.122786265937	0.119925179037	0.222679619464
-0.121797711941	0.179273208787	0.203492592455
-0.114520648854	-0.0254408855383	0.227261427856
-0.148748405664	0.432718438528	-0.0530418009388
-0.106384007921	-0.170921590779	0.205080980134
-0.108246877752	0.230944662283	0.168004213121
-0.0953850986922	-0.0699340941525	0.22141655304
-0.0932431665775	0.0732022572801	0.234275838389
-0.0934731545606	0.136799745068	0.221830325911
-0.0971693263017	0.262895418352	0.144387200282
-0.0911457907997	-0.137833408318	0.207447519445
0.121700760009	0.285355126301	0.173318024388
0.0782030746052	0.32459379304	0.00107873748198
-0.300662224625	0.394680497758	-0.100534326325
-0.0670355311479	0.0233589417568	0.221328831302
0.100936627454	0.0806693676126	0.316732927721
-0.0619667392111	-0.0126744552775	0.217511396342
-0.062302128461	0.202344710986	0.189667548066
-0.0615107316191	0.616385811861	-0.0688842895228
-0.0542271407321	-0.106249815735	0.19815303678
-0.0557037172088	0.163251328809	0.216616964783
0.0671153002103	0.312770188706	0.112272572333
-0.0504012961075	0.0674437520571	0.236824819661
-0.245549909944	-0.242217357968	0.104133314387
0.262111970815	0.178885011675	0.217856477606
0.12703651119	0.256628730289	0.199351788584
-0.0444972008336	0.231928880238	0.168521290855
0.105565160991	0.187036821266	0.233503740023
0.110833363431	0.0263426117113	0.320747980386
-0.0394620925558	-0.0456634920661	0.214827211317
0.0393235844864	0.316903133923	0.0525081122723
0.153825784936	-0.0289548340427	0.319732226184
0.226227022319	0.327049346391	0.0202540866237
-0.292309403957	0.574403739441	-0.232478698981
-0.0236242276192	0.256550806611	0.151023117132
0.203123138357	-0.217761682032	0.2513274903
-0.0162133846628	-0.220923723157	0.289373925836
-0.019496512282	-0.179198018193	0.223111935643
-0.0166699603346	0.144255372646	0.234142385599
-0.0216187330628	0.210956294463	0.191249271331
0.162769089042	-0.0621798560068	0.312614367927
-0.0100155523996	0.182688556846	0.216596059242
0.19510350833	0.137979071409	0.25644377073
0.201241206179	0.333876749228	0.0452570743756
0.240332560256	0.318907805536	-0.0134853566974
-0.191202817925	-0.168826672319	0.101945105058
-0.00516538163923	-0.265076335824	-0.0558607058769
0.136229045229	0.210395130286	0.224935868072
0.164285948353	0.296269703715	0.160420031566
0.168745689547	0.0685665176932	0.310118412285
0.0130617939622	-0.183924994651	0.249578023711
-0.281926969742	-0.279460967955	0.200702106271
0.0294014894895	0.164252773123	0.228868231487
0.0247561588418	0.228399377292	0.197970260128
0.188139562981	0.331029340692	0.0849304881066
0.0404100024952	-0.100010107252	0.295710450563
0.0383008919509	0.032246093493	0.320653018207
0.0448846605934	-0.0616231507563	0.305902265185
0.0543019308728	-0.171870754771	0.276953634368
0.422502169912	-0.180277848472	0.162055658315
-0.033739566564	0.64678902626	-0.0935055519158
0.058668374225	0.0773748676504	0.316011436004
0.0636781248759	-0.204681145419	0.263200016986
0.0627979404863	0.272753823046	0.175877197209
0.070725517806	0.156983708175	0.233364330726
0.0767241167253	0.00865709257683	0.326436248969
0.163654004791	0.15369866015	0.233113670669
0.0858229489569	-0.155968085151	0.293371554871
0.0837372984383	-0.0879317521842	0.310860893963
0.0870174677856	0.112013083412	0.295070811672
0.086240075873	0.236873188835	0.208514132993
-0.285475288628	0.4214934711	-0.158703192324
0.101323472036	-0.046987112708	0.326696667628
-0.0746712319662	0.579688630212	-0.0656430293136
0.48508033541	-0.112214611971	0.137779219368
0.397579939025	-0.103001690635	0.160572539603
-0.271478238673	0.351194571109	-0.0982476682251
0.236761367223	0.0306675595007	0.289360899106
0.374857658699	0.187552630547	-0.0690238981755
-0.162982823125	-0.244086738753	0.237858825414
-0.318386540732	0.342873797886	0.275597994131
0.339402191009	0.106907030513	0.219558423713
-0.3212557846	0.379215986901	0.263407518463
-0.161891821044	0.508273274522	0.00679664033123
-0.295561173489	0.277886764197	0.289931372036
0.246602950083	-0.0438066953513	0.2884238455
-0.279137685833	0.249831049635	0.271921567854
-0.289824679713	0.324374513358	0.258891522047
-0.416456502919	0.0258876685207	0.0403143602948
0.441091424699	-0.00337899574899	0.0456048982238
0.504733292326	-0.140450328702	0.114375001639
-0.291545304542	0.378013838019	0.239837046728
-0.279108228546	0.225953894729	0.241239018497
0.0652478393779	0.610266653227	-0.183134335001
0.3968936237	-0.0100783539779	0.171267674855
-0.277581943121	0.34866137555	0.223081032882
-0.260271344254	0.266351314974	0.239487985661
-0.264543137941	0.315150527429	0.229976171353
-0.0468524418185	0.535363753671	-0.0720897898974
-0.174198498028	0.382823815305	-0.000290452333183
-0.271084302597	0.212566105772	0.198352855596
-0.164943858317	0.362588719357	0.0420860161574
-0.255633144606	0.418111474037	0.193302445959
0.366482195553	0.0142183360697	0.209960421929
0.252555407285	-0.180031217516	0.249629876286
-0.257799003615	0.376792164475	0.182392028673
-0.128693307527	0.458860657129	-0.0836377633901
-0.200806298471	-0.237455774667	0.248043345537
0.459657496943	-0.214162379675	-0.0401837389633
-0.224913805552	0.304376285576	0.206497642503
-0.0439201175649	-0.268778557192	0.296752134357
-0.23962388309	0.450413508682	0.179995203667
0.273019154181	-0.0862532976912	0.264396104968
-0.215075667452	0.266451033527	0.199026322602
-0.213157557411	0.345227501024	0.174257439483
-0.227755219546	0.405965149378	0.158611026444
0.245159034617	-0.00249365945569	0.298292404715
0.360303067247	-0.0615157053068	0.207066724163
-0.0261651249983	0.596896514299	-0.116925416982
-0.0155374143329	0.559127606142	-0.107723212574
-0.20070062838	0.308615087285	0.181252380999
0.506278852235	-0.0817347527084	0.111023675525
-0.220923599149	0.451400012115	0.149171095892
0.481326109763	-0.213939236277	0.0170601278311
0.0628450854402	0.56235618956	-0.185932865113
0.045733025897	0.526864762016	-0.115535186546
0.298886621594	0.054388000748	0.261595528038
-0.399129739242	0.0066495645059	0.0963402313261
0.361130014596	-0.101899784295	0.207291732762
0.00716624429316	0.629167907521	-0.144342410991
0.374004545054	-0.0224605563092	0.200601758853
-0.195024142661	-0.196551044004	0.197511318599
0.0371410941868	0.62964340002	-0.16888627621
-0.175820963217	0.272373080861	0.159149319863
0.0500741806547	0.583967896954	-0.156422017127
-0.176464875859	0.309484458225	0.154996943768
-0.253814316797	0.569120412827	-0.404555515631
0.420311373295	-0.00679647755564	0.129286809996
-0.292833449658	0.587961504597	-0.280152192147
0.21482102972	-0.0467894176498	0.303857364068
0.292179398496	-0.279371834252	-0.0526180933409
0.392543037752	-0.0620372400852	0.174042457875
0.423531660351	0.125357055322	0.0314669428912
0.386465113313	0.144065799083	0.143656080245
0.384772696436	-0.14350501549	0.15888163306
-0.0843441485302	0.498138489407	-0.117671034569
0.298089808991	-0.118903263075	0.244678195323
0.290822479632	0.132704985019	0.239272042456
0.322290357262	-0.0616376432851	0.227426409121
0.524924539653	-0.154967300402	0.0361914823015
0.00605226192283	0.582779052934	-0.133232116417
-0.0242176249801	0.51946795497	-0.133630082568
0.208368623848	0.00303917860603	0.305967920326
0.315642512453	-0.0272748319526	0.243975592328
0.169446108016	-0.250692205304	0.248231437073
0.174057141673	0.199130480617	0.221995591659
0.322741862801	-0.164397965446	0.208780746967
0.413728145219	-0.0465250973385	0.140628612169
0.439222026977	0.0432493560089	0.00728903560191
-0.187783928103	-0.208049861265	0.0774590950767
0.325543269866	0.00912279248428	0.242123784152
0.500113322015	-0.179933823805	0.0967117221556
0.0226617440781	-0.242913214935	0.292805446303
0.367893068475	0.136949197212	0.174683813578
-0.0805540657187	-0.28961638688	0.194467360002
-0.326920699768	0.0232733462761	-0.14837658534
0.293122942608	-0.256038900718	-0.0833050982444
-0.163928579672	0.445236025944	0.0126664328241
-0.0715135727181	-0.282669070086	0.151033042524
0.329670301606	-0.0991229359005	0.227444970074
-0.109568943716	0.524002504099	-0.125618959335
0.207107077854	0.286843168746	-0.104233861365
-0.0953750354652	0.581769767176	-0.132762833807
0.44834097256	-0.202894432623	0.132142510702
-0.10253340019	0.455302948395	-0.045811213253
0.33108942113	-0.195551180141	0.187827437202
0.30907205016	0.205400471167	0.183998594483
0.492193182174	-0.192966960295	-0.0237254860489
0.247579141069	0.0824647990742	0.275449665766
-0.129640646079	0.462709575786	-0.010239243457
0.455416181339	-0.162432898914	0.151029220698
0.346814084794	-0.138353312623	0.207063456979
0.328930732865	0.05980063252	0.234810423867
0.420736030913	0.000603803830313	-0.0751138352554
0.28895673987	0.0911013696035	0.257466940965
-0.116745769803	0.500286434682	-0.0142964831071
0.424214236934	0.0394275819361	-0.0732955471062
0.0848212009817	-0.2538125613	0.271051476946
0.295101980316	-0.0580961767932	0.255111980013
0.36879772204	0.0506740765376	0.208623037362
0.398147702402	0.0800172507081	0.159966148189
0.280101319182	-0.159249494999	0.250707981286
0.294209343422	-0.0102900822764	0.26976173972
0.340290544114	-0.230530997223	0.147910649429
0.332393926297	0.220748268305	0.157681039061
0.285686980373	-0.237617309951	-0.127511045625
0.401260688941	0.112345233656	0.139464804501
0.012623085755	0.528293505084	-0.0816728898304
0.121326762751	-0.256764336626	0.259918943173
-0.0530485351251	0.57577493055	-0.0940838232652
0.266244450362	-0.2156637016	0.226156566923
-0.177350147415	0.405508237208	0.0267796416803
0.244654474045	-0.146187107948	0.268554090974
-0.0827658872125	0.521091098118	-0.0407396773177
0.318322811722	0.153137574963	0.206782448181
-0.4149610124	0.041818260536	0.102727538917
-0.141295214883	-0.289449587042	0.195675696293
0.514895924662	-0.124781147287	-0.031795201622
-0.259291961154	0.486146439934	-0.259497628823
-0.254007073177	0.494942417161	-0.214742849427
-0.261907741805	0.607089771252	-0.3943756688
0.0794951680283	-0.260865031665	-0.128760323275
-0.428676507514	0.451712764338	0.0212045312114
-0.433364854962	0.369507618886	0.0267685417962
-0.255466921234	0.52878254756	-0.275720907436
0.509469194682	-0.159845642833	-0.0223723144533
-0.180597579469	-0.167642931801	0.0632828919985
-0.260858426469	0.471279256041	-0.120424856498
0.250330686151	-0.282321187901	-0.154445613218
-0.303758818675	0.435547351876	-0.223161711052
-0.291904953489	0.136783098313	-0.148450843517
0.41016597589	0.0532490138323	-0.107230391609
-0.0439645801408	-0.279853820081	0.073756980601
-0.28234959983	0.431568848723	-0.194370996199
0.343652648086	-0.166219335577	-0.13748851695
-0.451637080443	0.297544289345	0.009051854786
0.392798993261	-0.029194576686	-0.117613123322
0.358180313363	0.219990901227	-0.0581443103624
0.267702469294	-0.271212654714	-0.120045875557
0.327138870035	-0.0603689612813	-0.190127696746
-0.262921197162	0.500138478384	-0.298870974238
0.379688248433	-0.0747317972406	-0.13710918268
0.0411702523025	0.691631563271	-0.196835711693
-0.442245738846	0.455967253091	0.0547269485785
-0.255033287409	0.487800331194	-0.179442375219
0.535487301916	-0.0983504949172	0.0286580265463
0.219560023673	-0.282741464517	-0.185148390364
0.100227885469	-0.264416952623	0.0872690765846
0.352047372614	-0.176941963705	-0.105631662381
-0.458747819873	0.313593864056	0.0457819308466
-0.447503207619	0.396410216245	0.0721834378483
0.524388517405	-0.089242845122	-0.00752688172921
0.213627211582	0.0671577278932	0.300909426768
0.247556900197	0.101486963002	-0.201497026323
0.421165123822	0.0567128319877	0.121560178702
-0.0912617241558	0.0877804119868	-0.200194950695
0.386030830187	0.0222878976851	-0.145358509193
-0.45530556987	0.272692115686	0.165242977798
-0.26548400499	0.514508502382	-0.344209339881
0.3997258105	0.112608130613	-0.089012253721
0.345836060049	-0.0862202180377	-0.168759682134
0.341901437254	-0.127877200792	-0.162480982412
0.402082196107	0.00460663119459	-0.109554003711
-0.20733248878	0.422784816633	0.131077069588
-0.430781288744	0.100449626795	0.0921843925675
-0.259326669177	0.546479171008	-0.35531656904
0.277162643971	-0.23907441747	-0.165233080787
0.307488833046	-0.23938472769	0.189170047449
0.00381533863938	0.538732187115	-0.149012559577
-0.0305267486743	0.496454876257	-0.104620295704
0.359637497809	-0.0470764843705	-0.156057238178
0.382765832497	-0.131515828816	-0.107785154856
-0.101952979375	-0.293517321897	-0.236922205033
0.465730306758	-0.21929203793	0.089122954632
0.423651272945	0.0984491755166	0.0984440432949
0.39366909307	0.173608025521	0.10059958757
-0.270517405544	0.509598346647	-0.385877174228
0.525617955277	-0.13134883282	0.0830918525843
0.195000938169	-0.126952205885	0.298792753246
0.432173709221	0.0573992395462	0.0878480501125
0.413143135606	0.13197658041	0.087069627511
-0.181210020754	0.376842249609	0.0856711327921
0.52625241592	-0.0777021795916	0.0766009147379
-0.0142654076835	0.50202228414	-0.0683579597348
0.408256622517	-0.0785910145688	-0.0880275457821
-0.230471758745	0.227535067984	0.187848787174
-0.192890345431	0.413497928883	0.071015315797
0.437280861048	0.0259987944522	0.0644340949635
0.43051606581	0.0909039483494	0.056795150175
0.405959584688	0.160591860779	0.0589247693648
0.476638951585	-0.218492051847	0.0538072087767
-0.367023639003	0.48823962666	0.0373737960097
-0.268984125572	0.483309613739	0.146955189201
-0.298642104632	0.623319845942	-0.356288228376
-0.247205669842	-0.214843511576	0.209626913972
-0.0171626684263	-0.287345283589	0.240168034995
0.52229754336	-0.0606870201206	0.0141319522608
0.503488352985	-0.0435085437332	0.0586287220184
0.490365467666	-0.0399599199741	0.0216588116064
0.467585973586	-0.0442060492355	0.0789947876915
0.133528692323	0.143614136493	-0.194883877878
-0.277839326625	0.451126130408	0.197222627631
0.45829283281	-0.0389560466232	0.0393130812796
-0.435764527322	0.20979893216	0.0518561722072
-0.286710224617	0.535067183318	-0.150163718212
-0.103192097663	0.121289520787	-0.190527377059
-0.306731650774	0.647777321957	-0.383624426623
-0.0659380726275	0.477629240287	-0.0861579772415
-0.172727462639	0.539969757496	-0.0121332223288
-0.34200626614	0.47026482918	0.173865000871
-0.299903109673	0.488711886283	-0.0201992034238
-0.43415985277	0.116149910337	0.0614777696905
-0.408744958063	0.476144934049	0.0850877164199
-0.349478320701	0.492555642805	0.0768522582841
-0.0842341462395	0.310114342908	0.010705957104
0.0775289739082	0.32607884765	0.057653502358
-0.279576927717	0.493899872702	0.0428405746028
-0.270458704211	0.450637905927	-0.226307649043
-0.250859527116	-0.215649623702	0.157454504673
-0.0917022618843	0.300006082859	0.0830272238544
-0.321576062943	0.446097152805	0.213327512496
-0.274339473163	0.642154941398	-0.410431778518
-0.1471553011	-0.172897781636	0.200537758132
-0.316316278072	0.486269607042	0.140185444375
-0.338134383122	0.597815308429	-0.275455827678
-0.143568839178	0.305447045269	0.0813557720594
-0.322555984616	0.494762542744	0.0430297815336
-0.293354350275	0.494232928364	0.106015377244
-0.261655819318	0.493901108674	0.0864949877441
-0.395923879698	0.465813562207	0.143310405381
-0.078988016442	0.303790774768	-0.0323301159731
-0.323433940949	0.528808717488	-0.112430634216
-0.235901333432	0.482193682693	0.133954143305
-0.0531954901069	0.298190137087	-0.00501453325389
-0.43665748789	0.360362367504	0.111348970985
-0.263178400679	0.500339332999	-0.14716368763
-0.130147945626	0.32026537862	0.00276209309108
-0.196990182397	0.377665910919	0.125225949421
-0.29225921795	0.598352880948	-0.317217552851
-0.44633039777	0.421472684691	0.109287740076
0.398938295841	0.180402489578	0.0125614764322
0.0305956617461	0.158167064286	-0.195173688205
0.074020853847	-0.122722537165	0.306536618021
0.374522965333	0.207748174321	0.0961047394123
0.35920885651	0.209574617575	0.131893309214
-0.430529026178	0.134574477023	0.0231122817683
-0.244161574112	0.492223236594	0.024686067701
0.374225107188	0.216195641912	0.0267723747007
0.431197800697	-0.0412914411614	0.101168783509
-0.206672151617	0.467268127424	0.114420557459
0.377669094445	0.207697236154	-0.0226647270044
0.351971651765	0.240731094712	0.0838738569259
-0.133698635507	0.316536021192	0.0465963762638
-0.281873712626	0.504669484316	-0.108410500681
0.353481427262	0.242300630919	0.0486510155738
-0.0567040515862	0.300308013068	0.04145237315
0.31900484857	0.257088637619	0.126756621193
-0.00610198427897	0.299477995129	-0.0271881109443
0.345182984568	0.25172481	0.00910393204391
0.306820020701	-0.257480939202	0.159420145232
0.323932985281	0.270575890806	0.0602975193758
-0.100051290115	0.610312000469	-0.0666290399374
-0.176953324344	0.348879350147	0.124510105851
-0.133832161073	0.316682519557	-0.0317655843579
0.158079589974	0.131176915284	0.260418817289
0.140478255674	0.116708321007	0.29204926726
0.278841935116	0.290169690688	0.116194766029
-0.291998455061	0.561037886691	-0.198736856381
-0.223830516322	0.515332800435	-0.0202022693122
0.31070772697	0.279342912848	-0.00578061617225
0.287380660023	0.296761030914	0.0737090454388
-0.0586982550674	0.287222284608	0.0903140789682
-0.311332422762	0.511694453138	-0.0818332938102
0.116248487208	0.130963861147	0.269523116154
0.242379324457	0.29087210899	0.143314116473
-0.335626272358	0.577030332208	-0.218201957461
0.287859626302	0.297916394145	0.0192715604812
-0.264967417373	0.559734045387	-0.296927625331
0.361033948363	-0.185693610793	0.161156906342
-0.0810733462584	0.629289613506	-0.0958984525509
-0.395232651833	0.469605950781	-0.00327581061864
0.235830184365	0.313031655776	0.109623940526
0.207798807344	0.291120542197	0.161088753193
0.0729255493321	0.129297079946	0.261907871544
0.0477892229256	0.11213326976	0.283305334683
0.274364726383	0.301088171351	-0.0184121592915
-0.41456062308	0.192995265744	0.0250982546057
-0.36381364082	0.482931246459	0.126211083447
0.240061968032	0.320426819824	0.0523902921426
-0.0135270491795	-0.0679482251552	0.245776880842
-0.118137942994	0.18529168032	-0.173954286045
-0.00960226023061	0.0686404489622	0.287155008236
-0.0681619982022	-0.218940272035	0.249061356981
-0.197796373395	-0.259504235873	-0.119883105924
-0.0364247981227	-0.138087367465	0.191322619641
-0.176419691302	-0.122700686007	0.173642950397
-0.171289094957	0.417009632485	-0.03042288395
0.447994309351	-0.0759076709792	0.121314391509
-0.34995450021	0.528715051342	-0.145117516512
-0.17413452771	-0.1599360405	0.176227613431
0.0188860286365	0.114711496022	0.253741374049
-0.103370053203	-0.255568716906	0.232956394851
-0.254250521868	-0.248522881425	0.232437563856
-0.206953321481	-0.129403721556	0.106822471684
0.0126788969476	-0.0796766240546	0.282554928377
0.00104807397206	0.0371924240159	0.311546229432
-0.383907659535	0.378921390334	0.258896128427
-0.326815473078	0.088613510999	0.217447585416
-0.285215692128	0.100436888791	-0.159704624556
-0.0100071881103	-0.130473451572	0.225803762767
-0.037694417887	0.59637935191	-0.164445763768
-0.318878690649	-0.266963621051	-0.0340617136022
-0.0926619000864	-0.219040106943	0.218954747835
-0.283550976201	0.0176109870986	-0.165598704127
-0.0288345554397	0.0207477491671	0.278164714407
-0.147847627087	-0.123281272795	0.20368363224
0.0164247627599	0.0967527602663	0.285669868135
-0.283615521575	-0.282798787654	0.137911618688
-0.134121408561	0.590298802101	-0.058412311811
-0.406898086172	0.1565881951	0.116513336729
-0.391450648074	0.221840699105	-0.0539200549197
-0.391178444886	0.320766588908	0.284739240758
-0.322938210383	0.0299623769765	0.21232019835
0.0187828659619	-0.132706498864	0.268982797448
-0.113303984074	-0.0460637258901	-0.159454854207
-0.308129989612	-0.265413989812	0.0162259097594
-0.109990308136	-0.00883957991131	-0.170420821519
-0.416357031916	0.256991934619	0.263205396926
-0.0705731910699	-0.187803513575	0.202397234342
-0.358274980925	0.0711852571045	0.193545897224
0.402203322234	-0.252685894569	-0.0359566737617
-0.269622156341	-0.11233028982	-0.0633440254484
-0.287263488	-0.233953805639	0.015055372092
-0.312671291748	-0.00384875830737	0.205373053909
-0.36920786914	0.269630892331	0.279255017402
-0.405837052886	0.0810205705633	0.137102660548
-0.427346690263	0.433879512616	0.146052946783
-0.0653725267042	0.123976305981	-0.194430721813
-0.401961612443	0.119150768798	0.140281797856
0.488896891292	-0.14554341795	-0.0607983719639
-0.408035648912	0.392437383129	0.226760884481
-0.35771898113	0.116380553002	0.185538413972
-0.252071846726	-0.233330963824	0.0420489515831
-0.0377347250298	-0.294660738641	-0.225572162453
-0.381211640519	0.0292571800292	0.162941024699
-0.356133952436	0.0331556608446	0.191324126713
-0.408856124003	0.436910539637	0.176707300188
-0.0281651969306	-0.029217140705	0.245480381873
-0.447979941557	0.255411590907	0.231598049948
0.397783427924	-0.264057315273	-0.00103524545383
0.332477356414	-0.263150198291	-0.0595295890838
-0.242590266338	0.37942303056	-0.086921470829
-0.366591193376	0.15823897091	0.163524238763
-0.0187740326056	0.0981956602925	0.241956162636
-0.21984389905	-0.212589361327	0.0339338568658
-0.0848418001191	-0.289299432927	0.0835370362889
0.00235851026384	-0.0401039593676	0.288447061548
-0.289349890438	0.445916194082	-0.258227399342
-0.431907331915	0.295493225288	0.247387469094
-0.420483110167	0.35621833103	0.236152471766
-0.392190077457	0.426420414706	0.206536666605
-0.256216852037	0.621624815669	-0.441202514392
-0.29208821458	0.571521101737	-0.408635324828
-0.336630386937	0.625767030119	-0.386051958891
-0.315930343822	0.591653578552	-0.376490353663
-0.30473661541	0.530362834959	-0.373184535252
-0.31527398687	0.561272226545	-0.355078878896
-0.363351405771	0.612030353697	-0.348998304203
-0.314944825883	0.520689699603	-0.332754488554
-0.343465622214	0.579848339745	-0.328616470704
-0.108511943869	0.307240830445	-0.0593409940944
-0.151990510154	0.289201063739	0.113981162615
-0.319745713019	0.493915558101	-0.304628206564
-0.367746196774	0.58135172174	-0.296485642873
-0.326349896198	0.452753379345	-0.290960714452
-0.327246534826	0.528268827444	-0.291092674157
-0.060001391957	0.223454678576	-0.154807753556
-0.270449061194	-0.232826194623	0.189668212456
-0.447259032708	0.323663017769	0.152196274522
-0.254237066372	-0.214359778135	0.00957230983489
-0.364479925563	0.554988242437	-0.269537330367
-0.0453816242847	-0.0648423904207	-0.246093118508
-0.0635357768528	0.00277973816393	-0.24779638858
-0.0434857168486	0.0617772696479	-0.251144992248
-0.342868244029	0.528753052714	-0.252127676627
-0.0606824378046	-0.030454536976	-0.240637056911
-0.328667568038	0.491474224385	-0.246385001688
0.118780728421	-0.266065406683	0.0501004973621
-0.220432786521	-0.200227823849	0.168525228456
-0.117939455806	-0.246337451489	-0.211990452548
-0.0476965374114	-0.103536175837	-0.212663502793
0.0467698874949	0.269434008725	-0.107722508306
-0.0320330486245	0.259393862442	-0.114270410066
-0.335960519894	0.475814476163	-0.212323411936
-0.0393019869799	-0.149833994432	-0.202841286861
-0.4315051255	0.0658525160737	0.0797023989472
-0.458073759835	0.260214690371	0.117720372582
-0.0800037904011	-0.0175167115681	-0.19452223413
-0.356842595939	0.543157594074	-0.195957427473
0.158989881063	0.239829701814	-0.16179231199
-0.146409456581	-0.264401389021	-0.190912703379
-0.357908524752	0.508895995897	-0.189344778577
-0.129884578909	-0.230246126565	-0.180220572821
-0.0746251884345	-0.0498115848319	-0.183477367122
0.0129263107588	0.672823951397	-0.186880189386
-0.0555652299522	-0.192963611991	-0.178606396752
-0.0536792929857	-0.143473380691	-0.169130617358
-0.0708723647753	-0.084811279117	-0.162602330179
-0.436202439141	0.390742343545	0.130938084274
-0.453074913347	0.293701150192	0.210805036461
-0.324666222163	0.427764159841	-0.16662067143
-0.143483375496	-0.233267502246	-0.143170211097
0.16948853089	0.286716942104	-0.110464309421
-0.0455675378394	0.285973551174	-0.0576407886727
-0.341933730323	0.470154818166	-0.145720928686
0.372914245328	-0.240439079662	0.134027828995
-0.437183539485	0.408632133771	0.0414407404563
-0.068480128882	-0.186226673069	-0.13308814517
-0.351292330192	0.0905331040205	-0.131663953613
-0.360124986306	0.0324534646521	-0.118658405129
-0.217915033932	-0.174640997844	0.00601869959708
-0.464512698084	0.261048218184	0.0791920402885
0.0756203622115	0.317655297148	-0.0368080839377
-0.46193593224	0.273186916041	0.0411934916534
-0.344861509301	0.487274835711	-0.0524585175839
0.014888959529	-0.29562520211	-0.210207487436
-0.352716679	0.477532159036	-0.10857728041
-0.0632357835917	0.0495690416366	-0.216912274075
-0.372082589894	0.118151597963	-0.100447089988
0.220345213188	0.247897405374	-0.144814842656
-0.12971171796	0.582834789394	-0.104409636783
-0.205276911765	-0.199133556589	0.132595227596
-0.454567873841	0.235592586843	0.0359740132198
-0.215686141623	-0.234737142544	-0.100171904159
0.0107470297503	0.246763573104	-0.132207255359
-0.442782461839	0.327532151174	0.187938068848
-0.431057753557	0.0908379537043	0.0254077846158
-0.364597547114	-0.022749291319	-0.0841974728459
-0.393500540721	0.0842371670182	-0.086549021246
-0.38357411945	0.0217068491877	-0.0831746442868
0.0272528837302	0.111887889725	-0.226591274624
-0.217266795254	-0.134718245109	-0.0729095820691
-0.357059807843	0.443187728537	-0.0773607743889
-0.23771204821	-0.21240725835	-0.0625943630429
-0.398502614586	0.143906497162	-0.0644275622973
-0.427302767831	0.0483832948123	0.0170810140945
-0.30019640794	-0.0937965022211	-0.0613998758067
-0.379765514655	0.387367245885	-0.0618398534895
-0.42809432815	0.455964911996	0.114876477415
-0.40578748219	0.0326539607177	-0.0543664452004
-0.409751347182	0.104656779969	-0.051591761044
-0.389281148664	0.178185809434	-0.0541852797191
-0.00498049086502	0.280733282474	-0.0849507415545
-0.364716818878	-0.0392549179881	-0.0446520938484
-0.424636585036	0.27688445851	-0.0466409829531
-0.296641565341	-0.233239625741	-0.0400831831708
-0.39290183532	-0.00135141249216	-0.0398651805406
-0.420354891994	0.31714891029	-0.0448364072465
-0.197185759645	0.53967158334	-0.0453713236048
-0.264806573724	-0.213617549941	-0.0318911278278
-0.224600427188	-0.156769058373	-0.034865070506
-0.400998964348	0.394613405605	-0.0334031551222
-0.379467273267	0.458128152774	-0.0362014812859
-0.258233279921	-0.0222877496195	0.219878410029
-0.419959422387	0.352799347711	-0.0318000103375
-0.169947168057	0.562560358444	-0.0431171456244
-0.421841183905	0.0702075823712	-0.0226231729226
-0.400933481535	0.199959263406	-0.0254178967302
0.105383088581	0.254896455235	-0.139276164741
0.0647606122434	0.124354361019	-0.214404861968
0.31882405981	-0.100771091357	-0.186240748703
0.283151618768	0.0767478522969	-0.200594696684
0.188696667277	0.263771129986	-0.138419888488
-0.287876348464	0.45893126882	-0.294929221362
0.0490515375875	0.295906017343	-0.0744498604501
0.285057038078	0.248777164133	-0.109031094951
-0.100483605019	-0.210299416919	-0.180643860271
0.277500413467	0.287706806035	-0.0550411747129
0.319534571505	0.182927136821	-0.134962701797
0.166255233539	0.121239243645	-0.20872370037
0.376908753277	0.0588810945436	-0.151372148017
0.014808505921	0.689024638841	-0.149923246186
-0.00249296182036	0.215900757749	-0.16261854375
0.422941932917	-0.079341957266	-0.0499801481117
0.249038691197	0.0653170090713	-0.225413083555
0.295075093478	-0.125682913614	-0.210178146401
0.314019865642	0.0862507261431	-0.184013997795
-0.020550521007	0.0912215381398	-0.238354950309
0.355256590634	0.119148533421	-0.139090995531
0.110977041054	0.200618117599	-0.186091572091
0.347615987753	0.158678940613	-0.132323270481
-0.268077640124	0.576957974184	-0.332941037364
0.490835194763	-0.081399296808	-0.0421085963857
0.217290717219	0.318717098336	-0.0462800234041
0.00420232756414	0.0843503620686	-0.270363201278
-0.254910872458	0.414561490514	-0.0824641254692
0.109645420706	0.310694291403	-0.077813642931
0.108033473426	0.29116098542	-0.108894580541
0.438288925838	-0.120426973048	-0.0731312385132
0.137213606619	0.272608717357	-0.120740215585
-0.0516161407307	-0.260410231443	-0.240846775003
0.437048431106	-0.0315021894886	-0.0279662982059
0.0126070270724	0.186610282864	-0.186739362657
0.308535610294	0.123354191679	-0.173268482605
-0.238076821029	0.480152295214	-0.043585875458
-0.0577080335856	-0.210561216595	-0.215024884067
0.238043225866	0.217736224756	-0.154121258221
0.255144121223	0.246115425694	-0.130157668922
0.0394665979223	0.228675259237	-0.156371796055
-0.259083544551	0.22716873561	-0.129032914808
-0.0286616971133	0.190950256957	-0.177909041069
0.468788348433	-0.0477911874929	-0.00503435256494
-0.239632601862	-0.26596897378	-0.106806155767
-0.213618314133	0.343946521431	-0.0797107447201
-0.226352230322	0.275112490605	-0.1032476946
0.322858247105	0.248726306409	-0.0702154619326
0.100473905696	0.120646407389	-0.229576507692
0.155654962408	0.0985891192286	-0.251714162024
-0.20381982768	0.296262656782	-0.0887758075759
0.3984185956	-0.250505372747	0.102657381776
0.0501000374393	0.198465244535	-0.174964180132
-0.192555995843	0.247980897493	-0.138149363216
-0.297493283118	0.0600499040854	0.231331011493
-0.180609025166	0.318693901943	-0.0667834339487
-0.166411879927	0.270767687231	-0.125788200791
0.260875869119	0.188655865916	-0.155468302513
-0.0617176878202	0.624133688383	-0.139014937812
0.0780702185885	0.236211810343	-0.151552465601
-0.0711057124818	0.184922793793	-0.171781364495
0.458481548382	-0.0679161234338	-0.0335470536299
0.144169833615	0.317161968424	-0.0631856102951
-0.143312647125	0.296105932742	-0.101110730132
-0.144038433932	0.240518482568	-0.146462657792
0.245457869322	0.298181485363	-0.0649553705665
0.178492736022	0.313127874226	-0.073664944489
0.293128948647	0.217163263317	-0.128464862477
0.38039961887	0.101085758237	-0.118646164956
-0.112865052693	0.27304757784	-0.120667090892
-0.0687676223686	-0.294419845458	0.0266075698531
-0.0998000586331	0.291737773382	-0.0920103441947
-0.100683582935	0.237870782481	-0.143084352393
-0.266354890252	0.464960616271	-0.0710714577692
0.34255503514	0.194962341899	-0.110594390216
0.0847654937124	0.0963487955607	-0.266393459243
-0.242174243932	0.0273655195434	-0.178213332397
-0.398687110349	0.294912639284	-0.0722471311717
-0.336121930971	0.383621589975	-0.0902815979116
0.441149812809	-0.183597288593	-0.0804357233181
0.426556538987	-0.212802603101	-0.0699837849917
-0.300932275096	-0.0631164512103	-0.0973800551801
-0.318055999102	0.338972968934	-0.100503144007
0.0806559042394	0.297696090687	0.147872612537
0.405944565503	-0.167379822249	-0.0909381487241
-0.360313072955	0.21473398611	-0.0705880129872
-0.333679387067	0.290260312734	-0.0999271802241
-0.242860014017	0.136565876844	-0.168441753194
0.389505738522	-0.206487530513	-0.0851466795336
-0.361513526509	0.316216754324	-0.0895217013224
-0.243436135574	0.314859519973	-0.0958358982637
-0.365564035349	0.349432446098	-0.0808810768521
-0.222365440928	0.172089203564	-0.165383760402
0.0116463373671	-0.262920386075	-0.113659442752
-0.196808210769	0.0543388058753	-0.188356516622
0.36054479597	-0.23933960173	-0.0730961264322
-0.217442160983	-0.029799890113	-0.164679440883
-0.19599790002	-0.0015396259867	-0.177342003352
-0.00380804025366	0.670236409303	-0.122684705464
-0.333395840929	0.0614148058198	-0.145295202418
0.353879080404	0.0239852450682	-0.170321805425
-0.118074607866	0.0311523723897	-0.185207235083
-0.130922672055	-0.160031356839	-0.120586632753
-0.341407463803	-0.00960239913936	-0.113275322946
-0.109771845826	-0.291587798879	0.12585802929
-0.152000889723	-0.119620802102	-0.12885761114
-0.21027790958	0.111224551251	-0.186479881523
-0.221748537524	0.411504246393	-0.0603781209593
0.313827510141	0.0325952029351	-0.195297736375
-0.284606028689	0.283305201442	-0.105286629571
-0.191396801277	-0.0778352957616	-0.128820129194
-0.147493768244	-0.0306726692794	-0.162804906454
0.299371320879	-0.205054500133	-0.169728387939
0.304483780301	-0.167109596371	-0.188234306309
0.301081354558	-0.00446225021428	-0.208876988545
-0.299102523047	-0.0190445462982	-0.14811925665
0.207239495477	0.165613889686	-0.17835200296
-0.233209472187	0.446653279655	-0.0570601664523
0.286296420251	-0.0432170455245	-0.220152805815
0.389238830986	0.151708280492	-0.0823419296444
0.27566635742	0.0273020865107	-0.220598906576
-0.150037238749	0.168298363436	-0.178317322395
0.273019405116	-0.198053282206	-0.193047288392
0.270078146708	-0.0830326947622	-0.229822542859
-0.0326505688214	-0.266609539409	0.000451177123943
0.24752133685	-0.118614250271	-0.229963392848
0.243723512248	0.025864730139	-0.236657760413
-0.00118674460646	0.132476534564	-0.203188336553
-0.244563765834	-0.0542429139751	-0.147067437764
0.23858935391	-0.190876670645	-0.218347247949
0.241060112018	-0.0546425508942	-0.244379022105
0.234283088957	-0.152075169967	-0.234034648072
0.231425620726	-0.016648193901	-0.243542628683
0.224044862321	-0.227065623105	-0.20690900636
-0.138075221562	0.545511272132	-0.110556702853
0.208578445693	0.130396388135	-0.192556843706
0.214464885871	0.0610500417582	-0.24690191909
-0.142573690855	-0.0712242083187	-0.151361035954
-0.367612221503	0.271337436434	-0.0855448058143
0.208265819929	-0.0997914720718	-0.249187036582
-0.15852750168	0.340159456298	-0.00805973329693
0.200405547362	0.203664910869	-0.172939622457
0.18055307665	-0.0576383355038	-0.264171845322
0.0383851809948	0.0564404011121	-0.292931152421
-0.34564452971	0.143223672695	-0.118042892869
0.174344743188	-0.259579247126	-0.20277494079
0.174698228354	0.0187844011845	-0.266987784665
0.1698952242	-0.154011860766	-0.245041828462
0.168633883814	0.189181156295	-0.177471204704
-0.268115418453	0.526152545764	-0.418293264881
0.162399827372	-0.212994619868	-0.227446424342
0.159237155649	-0.017101516503	-0.274523723904
0.0696794263604	0.550403412587	-0.145554206025
-0.243223947959	0.0732640734792	-0.175074908836
-0.168818436371	0.506630736609	-0.0914729641561
0.142604623465	-0.186188657351	-0.244981128297
0.143481833388	-0.12426767678	-0.262339953898
0.139809582012	0.0261628574737	-0.282423252564
-0.185147643468	-0.186796633235	-0.0984781112342
-0.186630800775	-0.135808550118	-0.108757644364
0.131954602064	-0.075638739323	-0.268943272286
0.135844795011	0.0641488314149	-0.273679087644
0.177474911062	0.329059434125	-0.0341259018512
-0.155800146777	0.0325143385388	-0.186273987246
0.119957416456	-0.28424529349	-0.204263570589
0.124140813575	-0.228362213758	-0.216735102122
0.122884071553	-0.15887841376	-0.25571277536
0.121125803612	-0.0241504343658	-0.282425135902
-0.193067797307	0.436917408764	-0.0610481636469
0.0924420471158	-0.208840441012	-0.241256739979
0.0894890850389	-0.144273075721	-0.263906646879
0.0867778652024	0.167812217696	-0.194652060193
0.0821708159158	-0.0999215524137	-0.278293446315
0.085307405483	-0.0392737854609	-0.289819873739
-0.308349168184	0.219123469717	-0.107031611444
0.0779820497372	-0.23481332262	-0.216293654845
-0.190124742564	0.196940826099	-0.166628546839
-0.195786492624	0.478253761166	-0.0711450465311
0.341726141006	0.0619971938953	-0.173827426191
0.0713867651317	-0.00337364302656	-0.292270445615
-0.0209695064846	-0.150712854995	-0.232894892113
0.0461300013419	-0.272951121162	-0.158871936248
-0.312665747195	0.172211129477	-0.126038566311
0.0577112383617	-0.174831022126	-0.256468382009
0.0478526618586	-0.0915707019642	-0.289189881642
0.0770761285022	-0.29414289972	-0.193849288256
0.0438072033513	0.613786237228	-0.212092451924
0.037435377151	0.652659372308	-0.215995635808
0.0293008532321	-0.252983877565	-0.227110403983
0.0295272297734	-0.13338540729	-0.272914773735
-0.253252408439	-0.0183249979231	-0.163566123045
-0.264284188349	-0.281543287981	0.0933852298143
0.0260561837795	-0.205386310285	-0.235550394664
0.0237586953359	-0.0133724800904	-0.297834767808
0.265454121533	0.131961446724	-0.191448292448
-0.248837914724	-0.0858735113762	-0.10467846041
0.335057237564	-0.209018236271	-0.0945331417598
-0.165802246251	0.13640431378	-0.187240622816
0.014881432104	0.589197915613	-0.183091632888
0.0113315925324	-0.0841849962488	-0.285592925594
-0.296189090171	-0.259085927196	-0.0711349181126
-0.00286984367994	-0.0524103569594	-0.292005681689
-0.00195995239341	0.0179650535264	-0.296080003578
-0.278177814836	0.187649301582	-0.136747551738
-0.00925763674693	-0.24713307318	-0.234712848003
-0.00942441279715	-0.184192854196	-0.228400364546
-0.00668363290671	-0.122112482168	-0.259168385722
-0.124679571332	-0.197151296684	-0.120225448685
-0.0150868743085	0.629866917599	-0.175334925035
-0.134406011309	-0.286544948175	-0.221366371784
-0.0178040036629	-0.0184190975509	-0.289287533466
-0.0232152713367	0.0490477326698	-0.281385064331
-0.373512268233	-0.0370178104386	0.0846356858052
0.280514095308	-0.278851971976	0.0598038307834
-0.0689433731946	-0.288316735268	0.228670738078
0.188289106705	-0.287789082799	0.231912762602
0.2503463499	-0.287008079609	0.146202362981
0.236292042486	-0.288021166015	0.181868003264
0.293185233211	-0.289538661484	-0.0179859298622
0.170546302801	-0.258255567976	0.161932394062
0.332423505833	-0.280733902854	-0.0238928109958
0.414428905595	-0.22809775096	0.128716967847
0.216288963918	-0.290671972742	-0.0733882196107
0.144123814439	-0.260839717875	0.133332296383
-0.419005893676	0.207973529776	0.093037181835
0.322780233456	-0.288393604689	0.0118548321153
0.253121459047	0.265753588711	0.167090389714
-0.293862020798	0.420230002227	0.226230367156
0.19977717142	-0.274627800755	0.175329708437
0.22570021054	-0.289538619471	0.0987251418252
-0.0714170036855	-0.27886997576	0.270970901119
0.108813801496	-0.259517551953	0.178958074488
0.177292105552	-0.292450704819	0.0509711499526
0.141810946989	-0.286564480811	0.0207253853513
0.181709676278	-0.275671784214	-0.0763309527227
0.302929012259	-0.283369346823	0.0948634687097
0.193611579469	-0.271211480068	-0.110191245869
0.24051787178	-0.289231578969	-0.102266495962
0.290818499892	-0.277397871567	0.130269541149
0.119047281898	-0.264207985634	0.00206752938003
-0.409588022678	0.211288458311	0.143222034021
-0.437563386801	0.222205532908	0.214460024929
0.245613497588	-0.274012018238	0.232901793788
-0.00559113226212	-0.266531524897	0.103769245782
0.0914328801525	-0.286315676205	0.25898836494
0.122832857741	-0.27548048554	-0.147702120953
0.0750633029585	-0.264055541895	0.113380098028
-0.395617822217	-0.0163953609631	0.0461145267605
0.220330964061	-0.284505453244	-0.0230613922706
0.0532173828717	-0.2639983019	-0.0274579175023
-0.407880168681	0.202914785131	0.206405173117
0.040547552946	-0.265364586157	0.0877396505075
-0.360809457721	-0.0581751479375	-0.0101500345911
0.385662564319	-0.271183629087	0.0304479746969
0.182716452682	-0.265963529197	0.12843723691
0.409635036399	-0.255779400042	0.0645675372197
0.0434208042723	-0.288368233647	0.247436764943
-0.374555077442	0.191479549722	0.181917481887
-0.44872363963	0.235664560773	0.165917055902
0.0230663098981	-0.264159386519	0.130046142073
0.0830978029831	-0.262023756339	0.15224128403
-0.332467226101	-0.083023901035	-0.0345546722095
-0.379585015175	-0.0132745781349	0.125681760096
0.0128334939517	-0.25931961856	0.203046837188
0.279285898733	-0.275434685826	0.177286263888
0.288302798754	0.263714701454	0.153126890717
0.115128853759	-0.2611545463	-0.0672945645097
-0.363754802927	0.193702906344	0.216162127299
-0.369451178617	0.212858959653	0.25086266114
0.150898416472	-0.282842545909	0.0777510881676
-0.333183258273	-0.0898227520605	0.0355744695003
-0.321119793465	0.168240405827	0.194293994521
-0.340950467824	-0.0673583800375	0.10630910438
-0.345808478369	0.225661210144	0.277908479961
0.366820280348	-0.269075665545	-0.0304532295785
-0.283497726048	-0.114810717395	-0.0277978768049
0.151397990192	-0.285230581639	-0.0218816250713
-0.335365254052	-0.0489011412434	0.152592098646
-0.314137456982	0.206339996935	0.247409659138
-0.2906363712	-0.120783930877	0.0118319300686
-0.31164853573	-0.105777664272	0.0755372764737
0.0710557459177	-0.265407576028	0.0625121652216
-0.283211672168	-0.295052912398	-0.079115008904
0.276045387219	-0.267540173935	0.211207520896
-0.328717312403	-0.0255412658462	0.182255463339
0.086338391025	-0.264462070381	0.0296603904527
0.429381806538	-0.249396610942	0.0357919377916
-0.305180450775	-0.0817092540919	0.130656963277
0.200884909678	-0.291723321949	-0.15025308069
0.152542319891	-0.265978556455	-0.051196691973
-0.284737653547	-0.105307262144	0.107882475693
0.164540363352	-0.287564739784	0.202674499921
-0.243081351555	-0.296418582805	-0.085336187588
-0.26676399682	-0.295945026278	-0.0221743165256
-0.268102315068	-0.1260040484	0.0670262380134
-0.249398333874	-0.135254006608	0.0238834677183
-0.287874218228	-0.0747781478259	0.161530912529
-0.011952926832	-0.267076499498	0.0505954176175
0.256518564168	-0.28820675001	-0.0300298062359
-0.25493708202	-0.295087703198	0.0112089737509
0.351361077721	-0.280968268659	0.0481679698448
-0.236483569089	-0.137565556227	0.0575735839982
-0.205992513793	-0.29670952679	-0.0910368193999
-0.230453730644	-0.295799995264	-0.0323786522216
-0.263444169763	-0.293170831808	0.0503850772884
-0.26995760488	-0.0488290368837	0.197388147294
0.106792733388	-0.26276352727	-0.0305471131174
-0.185672054031	-0.295794647295	-0.121333294224
-0.246250972973	-0.11297374426	0.116879781912
-0.25468648043	-0.0769907738332	0.177470812871
-0.447922772876	0.230783793663	0.0956826209711
-0.22975635186	-0.102081894855	0.151658600791
-0.14269181817	-0.295830096607	-0.16955611829
-0.216925831674	-0.296285031364	0.0192016711627
0.0763181747874	0.0629013663605	-0.28454277691
0.00550975473723	-0.262298863323	0.166263399954
-0.169823133377	-0.295918675298	-0.0846679681352
-0.196510479707	-0.295758766948	-0.0185065344513
-0.2235005687	-0.070130743177	0.195139914288
-0.108339381294	-0.295779140465	-0.197625704998
-0.21002006279	-0.295559728815	0.066905433018
0.136367524099	-0.259660035224	-0.103179401579
-0.129690575421	-0.294213478427	-0.120153875537
-0.22110005275	-0.293604128404	0.102908262622
-0.369820293174	-0.0588601996107	0.0462098931073
-0.241060654926	-0.290562726163	0.179300660579
-0.219858621657	-0.291122006956	0.146662629362
-0.251380679518	-0.289425944265	0.216914402619
0.162287393268	-0.292792157074	-0.180642130599
0.331621593583	-0.260543317312	0.125212313972
-0.188565798242	-0.0470957681628	0.212954485569
-0.0794551013968	-0.292214939454	-0.177431561998
-0.0959888692785	-0.26630978277	-0.114078377646
-0.141622609027	-0.296135906524	-0.0243454771262
-0.177445977316	-0.0758095023279	0.19713673097
0.0505965284334	-0.265177777812	0.0287547759001
-0.115622869706	-0.291069926381	-0.0586538883113
-0.18726508109	-0.291179834677	0.131309992386
-0.0634697081403	-0.263745823654	-0.147653177504
-0.129262437795	-0.283772379828	0.00799562012547
-0.208747389653	-0.28981212182	0.192058158751
-0.220944631024	-0.286508187344	0.242707744479
0.0189417408736	-0.282240529039	0.288111170847
-0.176278598295	-0.28935046135	0.170655843015
-0.0531472486384	-0.264372621297	-0.102186297152
-0.0966656994397	-0.295130082054	-0.00307926720124
-0.0169057143555	-0.293399490031	-0.186225177808
-0.0303994265278	-0.262858129343	-0.137094657715
0.0606434298535	-0.262516607535	-0.0780734306568
0.0599322863533	-0.258475351781	0.195743378037
-0.174597139325	-0.288639489752	0.22759417596
-0.0604035165921	-0.265468583008	-0.0411480609282
-0.0267060845655	-0.262537902701	0.178094592242
-0.13324339017	-0.289667755808	0.16094040129
