0.0473282050303	0.319142761795	-0.0213895141848
-0.398865824626	-0.00861401703866	0.0322053202263
-0.336295478537	0.576374357277	-0.198190240608
-0.411387100357	0.0221660139405	0.0846284480948
-0.299635602208	0.586707036166	-0.231660889616
-0.0194599116452	0.298088291728	0.0817275758042
-0.0968830036865	0.610582047251	-0.0502231131821
0.0191336585734	0.317661912382	0.0522058647855
-0.316160156625	0.509305936565	-0.0583378601371
0.106015202265	0.30128120732	0.163717874243
-0.190474826916	0.487049198608	0.0326908591181
-0.356203127016	0.34586670463	0.29655260239
-0.286138024211	0.513245926438	-0.100865845372
-0.301255276414	0.658914982349	-0.390966828946
0.429529084229	0.103322880402	-0.0275795203001
-0.332355239942	0.282462005657	0.3031688988
-0.332455943331	0.420903757053	0.249719431151
-0.0698313922263	-0.290112834891	0.0542653316868
-0.256863042731	0.580797257561	-0.382885907764
0.177324513461	0.342635929101	0.0315707941092
0.178232807402	-0.207462050436	0.27488687777
-0.0632332259808	0.275863821951	0.127954097613
-0.275882482691	0.0352901992424	0.242771368474
-0.266609344307	0.119919464277	0.232921136768
0.176581266717	0.151937794233	-0.182302896606
0.105628208656	0.336628407973	0.0466183476371
-0.251850730546	-0.0267949561617	0.223265883304
0.145064388087	-0.171818512452	0.304007187717
-0.234945534561	0.0717402889144	0.248184389224
-0.236568152122	0.201260863741	0.201199619615
0.13489471867	-0.120775235385	0.315059338071
0.1356149414	-0.0502674004027	0.327271284139
-0.225936990247	-0.220113905801	0.242137582838
0.406516770704	-0.133255130562	0.157200940796
0.535771080397	-0.105908993318	0.0604804528374
-0.203749133814	0.167226933191	0.221232211529
0.101638758937	0.244860263868	0.212526329548
0.268547540644	0.0872067913748	0.26595245766
-0.280994879127	0.598511924053	-0.322678840422
0.159407319294	0.141607793057	0.253768374831
-0.179187685172	0.0772056191487	0.245385853306
0.185348726092	0.336626408415	-0.0190806850985
0.113095028505	0.0720942838011	0.323922982823
0.444807461854	-0.0679735714992	0.122123229021
-0.158216409268	-0.23035876382	0.238862501243
0.157538778289	0.0427928961718	0.32805481677
0.171178098441	0.339469825102	0.0818476650398
0.156093170973	0.192843211459	0.232484482233
-0.15254988541	-0.0757631912929	0.213582950553
-0.148386150533	0.196043707104	0.208587361642
-0.142577419873	-0.0199738388741	0.231822656119
-0.143181751346	0.129401230366	0.232655941828
-0.14111195402	0.249104831153	0.161725256926
-0.123843373611	-0.120801589671	0.219375776047
-0.119831233192	0.0289240045045	0.234998351642
0.20711497732	0.184412856514	0.223840180407
-0.0989401465035	-0.0523695542084	0.228284588165
-0.103775095161	0.0896256412648	0.238251203107
-0.102990647083	0.221168144982	0.183549782155
-0.223958760485	-0.216432565665	-0.0812112130954
-0.0842679374572	0.181747660953	0.206455015008
0.127438218168	-0.219007215092	0.259513856091
-0.0634363881189	0.0309541622684	0.227297191774
-0.0560413099515	0.634439395628	-0.0701028824436
0.0741240081079	0.324776264472	0.104748236424
-0.0422876046678	0.148931008479	0.233339939651
0.527338031221	-0.112878581099	-0.00934052393624
-0.0373586926843	-0.0635902760658	0.213234888014
0.43595518504	-0.174454599902	0.164205575991
0.225476850996	0.331903798944	0.0758487408627
-0.399675109949	0.350391925812	-0.0525456260707
-0.0238387858894	0.234674546235	0.177788410221
0.382937643255	-0.205813675701	0.159069860243
0.251217434032	0.243063585146	0.192986519423
-0.00782418084706	-0.20391127816	0.289195795965
-0.26873634275	0.475778933473	-0.261344200213
-0.341205151708	0.500186715457	0.0794777724077
0.00721793113632	0.171871730104	0.23282131746
0.188679691921	0.320217060186	0.138031286731
0.0269979508396	-0.00853954391095	0.31843361992
0.173278970293	-0.00577342492326	0.319465479728
0.0393166762695	-0.190641944025	0.264432467122
0.0432088811679	0.0798257301034	0.319875644974
0.0425889408298	0.210232552469	0.222404951728
0.424964385133	0.0211993724111	-0.0635584263972
0.45901703661	-0.121737399733	0.156981649021
0.0740061422372	0.120986298015	0.292523036376
0.0700155109543	-0.0857609914007	0.312301872754
0.188401469439	0.284935409379	0.181918334489
0.0783589907062	-0.142563973305	0.300250412229
0.0938156431365	0.200511962012	0.235941476965
0.323338597391	0.0433302524677	0.250482418186
-0.228256400323	-0.188291888978	0.000264196552778
0.443510131002	0.00053649080955	0.0391858025006
-0.294975483701	0.244353920606	0.287077949359
-0.313185291329	0.37894797759	0.267297295625
0.439044845619	-0.0298048882846	0.0894603441185
0.376902919026	-0.0640970884125	0.199488245489
0.367795959984	0.060956437861	0.217604706931
-0.283574874843	0.400450709619	0.231291050665
-0.264262145416	0.265024316888	0.251251342444
-0.258393649291	0.499586229091	-0.151014709298
-0.253925399092	0.322236039028	0.222680315236
0.4235878609	0.137528627751	0.0206796030357
0.453222607196	-0.205812558183	-0.0483315767561
0.0270169653773	0.547944208285	-0.100553144988
-0.244035480051	0.459816225263	0.187628059591
0.276598788615	-0.041422356906	0.281932217028
-0.22477669292	0.378667830103	0.16875979248
0.0283089279299	0.642630832987	-0.157925407624
-0.192941840346	0.283140956301	0.184761583237
0.276137503956	-0.0918922905755	0.265441180473
0.332707660023	-0.229450229278	0.160540145857
0.305952507953	0.208634937572	0.193688567971
0.299044767986	0.137728303521	0.240446337352
0.407808063068	0.0962881076204	0.146508455566
-0.0623399815567	0.489449003525	-0.045785446646
0.318093765885	-0.0429536364754	0.240650192168
0.508932901984	-0.17831769552	0.000207150446352
0.361369008694	-0.130099685847	0.204288961536
0.321354034689	-0.149916006844	0.222541638411
-0.0143719574801	0.57517600109	-0.110233664931
0.227408953354	-0.00857910567441	0.309752580933
-0.257314866863	0.632359612419	-0.433544321089
0.24288104214	-0.212309100233	0.239574676712
0.000871460787544	0.514984178317	-0.0694218154385
-0.0766063909949	0.108135512434	-0.194472323818
0.228113267353	0.0703835685493	0.301204185772
0.516043956579	-0.15326744433	0.0998570931885
0.359677430541	0.186040391465	0.160833322913
0.51521698058	-0.0727321259774	0.105188492042
-0.00914998461161	0.277634553841	0.140135229436
0.0336466673846	-0.238639457856	0.294805453332
0.318883665836	-0.147168254696	-0.173544287795
0.219335736025	-0.166744885855	0.285037805758
-0.13771255528	0.512079827487	-0.00801603431528
0.406910846097	0.0454425106955	0.164103860985
0.305951503942	-0.232897249561	0.201898209206
0.348723363949	0.114571634751	0.217537068695
0.408022746306	-0.0405497040204	0.158455122073
0.439980411751	-0.0108859608581	-0.0161332846008
0.49369072476	-0.157535100423	-0.0457159516674
-0.0862397900507	0.562429412049	-0.0574694033663
0.390848188042	-0.24903232219	-0.043533694693
-0.256837623962	0.537571829592	-0.252992915463
0.244614968881	0.209291860264	-0.152847267955
0.08709153082	0.615010091498	-0.212897595918
0.0253944086275	-0.269467470772	-0.158176972165
-0.424837555373	0.38680002084	0.0162922551267
0.437023064433	0.0511723683254	-0.0194794774825
0.436758492539	0.0717288056557	0.0497518988772
-0.254858668627	0.516973664075	-0.205301101877
0.368014990357	-0.0598329310542	-0.146119562475
-0.426159056056	0.114109060173	-0.0031290898523
-0.407132613505	0.205896999768	0.112512715568
0.360046798191	-0.112553091041	-0.145004108914
0.382553846253	0.0241868397939	-0.145428567225
-0.181913086837	-0.16019452555	0.0702059294355
-0.353797282873	0.142865381176	-0.109877172562
-0.444863505695	0.339622098693	0.152977519546
0.199426701454	-0.104713238669	0.311522361064
0.27530302425	-0.247584629725	-0.142076996916
0.469659757965	-0.219011834708	0.00934132143318
-0.264851394583	0.522327603936	-0.336093550507
-0.254677840753	-0.234201948709	0.123002997959
-0.410485396627	0.439090761178	0.00175042059785
-0.464228919603	0.314361521066	0.0790382540309
-0.112482150198	0.462669284088	-0.0244600323527
0.405048457706	-0.0658625638493	-0.0983145886324
-0.165753228254	0.36408578701	0.0133346456963
-0.208626475147	0.445368289351	0.129853101735
0.397331076985	0.131157185895	-0.0862190579308
-0.151072802008	0.436685696466	-0.00917923487945
0.318433093943	-0.208428540619	-0.124406289616
0.273525508593	-0.206787199011	-0.180460631076
0.408682537951	0.146325470718	0.102849368009
-0.189052191185	0.440810462382	0.0554585757289
0.429266666965	0.084659025464	0.0997180162549
0.437601169352	0.0287301079093	0.0891614203024
-0.1819543355	0.395993284901	0.0769848004214
0.406718721387	0.162109355048	-0.0371223581862
0.49925864336	-0.195403323038	0.0590001443692
-0.353767597725	0.49097380249	-0.00498523230953
-0.302217861101	0.469485920213	0.196849741561
-0.322100457342	0.554285296602	-0.143304193368
0.513572350345	-0.0427604565299	0.0596705285747
-0.40111600646	0.485410955261	0.0938559441807
-0.457121957799	0.299149291601	0.0278967041311
-0.457860988247	0.242909435998	0.0673113440057
-0.260795044034	0.429357355927	-0.0881567777981
-0.292316514524	0.501623540775	0.0897731616498
-0.0977423612594	0.31774297342	0.0415344666034
-0.400269522009	0.484893095256	0.0413673101565
-0.0395094195622	0.303937901346	0.0318489778257
-0.150264612169	0.317389239012	0.0996004266892
-0.235434617302	0.496892984043	0.0705174969896
-0.313680875217	0.500178801677	0.0327673040851
0.322466815363	0.243824932722	0.155578585823
-0.436718587861	0.394316668765	0.115550232434
-0.13545106329	0.326309871455	0.00179239253092
-0.119466713653	0.285548616566	0.125697343555
0.371847111901	0.216344479423	0.111520269816
0.387669329285	0.205222936889	0.0225508504049
-0.0372305980439	0.135902966381	-0.19514922441
0.371568988515	0.21564204709	-0.0376112291405
0.457352376164	-0.213230291992	0.111470874457
0.315435780604	0.276220258503	0.11273105664
0.334512661639	0.269644007997	0.030115843846
-0.189372020445	0.374784626057	0.12449175653
0.269818459208	0.184597113487	0.220419844
-0.354163982226	0.482047489319	0.162215557672
-0.455461846178	0.25247347706	0.212279335057
0.286887408977	0.304225857479	0.0706633655874
0.304009452039	0.285009404894	-0.0267390591309
0.265674043014	0.304228235754	0.113928830984
-0.34311348355	0.615583693603	-0.298701350022
0.0369802022832	0.278756390875	0.167168897758
0.131599239583	0.119285344735	0.300487779179
-0.429041284351	0.0540376759699	0.0391673661196
0.25128569542	0.323179573809	0.0268715293249
0.030150976574	-0.144010783718	0.281527480133
-0.0982740373067	0.479172391075	-0.0898829058109
-0.274445732416	0.438879412968	-0.171536689369
-0.0451957047817	-0.254547684125	0.301340711472
-0.00158205778278	-0.0883766414439	0.254355055178
-0.0232028462586	0.0327831830735	0.29196349059
0.0265656902739	0.113627145781	0.281107255323
-0.267904360054	0.134512716882	-0.156177520672
-0.0794813396343	-0.235528540969	0.262669013398
0.332549576867	-0.00260318392846	-0.182893448462
-0.0527404121709	-0.195374941055	0.243245908787
-0.344725982989	0.516878246126	-0.0995751510407
-0.300885664102	0.44324438174	-0.226850253721
-0.381004031273	0.291718332602	0.288316781453
-0.214425947575	-0.194046736045	0.176274458478
-0.336431801954	0.035473940544	0.209736823383
-0.372702961804	0.438203496866	0.222304115158
-0.112299776126	-0.101265410811	-0.127968238852
-0.332594983004	0.10197258463	0.218169781122
-0.0320173133608	-0.222771341485	-0.227105372784
-0.315220172278	-0.260012367161	0.014693757575
-0.200341782154	-0.115548381441	0.138692578627
-0.271653607752	-0.233205242116	0.199640375704
-0.40965254146	0.380504530376	0.245927712097
-0.111100092791	0.0579537943425	-0.187093882906
-0.407360895977	0.14261910376	0.132786341687
-0.0343786131446	-0.0183088584261	0.245566548749
-0.399954488198	0.0494965777092	0.141316214975
-0.018833938242	0.0807864110798	0.272931294851
-0.41608703329	0.463318638105	0.140175179403
-0.290686102951	-0.089661908235	-0.066925245601
-0.285627531171	0.0771278735405	-0.157553721273
-0.070940048236	0.583361476802	-0.143839939473
-0.244937729281	-0.231174066746	0.0545752421115
-0.0299405662118	-0.158900260405	0.201844851572
-0.368532816006	0.13125583603	0.179421930684
0.0667682096306	0.145269731193	0.242035092923
-0.156608447526	0.578842508478	-0.0389126358354
-0.307669331173	0.575688358148	-0.373373608173
-0.362320926621	0.624515465422	-0.354644650588
-0.326300394318	0.538590409701	-0.295003183741
-0.447935217124	0.403186929435	0.0664493719636
-0.0435000754096	0.00858887740054	-0.269356781703
-0.363940307223	0.556412779269	-0.25627559451
-0.327865339908	0.502562740834	-0.251655498414
-0.0687274758872	0.0326874097054	-0.219782550913
0.199335755876	0.105188279482	-0.226490990812
-0.0541553842726	-0.0752347701892	-0.213027779451
-0.14183148365	-0.278457658592	-0.20158287823
0.162307682057	0.251714354577	-0.151798746068
0.0715936496164	0.137393803227	-0.200312486445
0.159429535421	-0.269929869034	-0.0425766758577
-0.0807781944165	-0.0214428948687	-0.18036797363
-0.208070851937	-0.271827104347	-0.116345376041
-0.360636665805	0.520441705031	-0.174218742085
-0.0496560410989	-0.174821459717	-0.164521395497
-0.345354038943	0.459950661322	-0.165604362811
-0.0581550070634	-0.122001611222	-0.158847647383
-0.144533526947	-0.237454531358	-0.150148899384
-0.0262216044	0.648708974488	-0.156199075788
-0.460557608421	0.288459231806	0.12879874148
-0.0829723482261	-0.288181705804	0.120216939421
-0.442746014145	0.32480166171	0.220010743654
-0.0667546859768	-0.161292471215	-0.113254559909
-0.442679357451	0.448561636536	0.0445725889154
-0.354702194818	0.0854783964693	-0.124741024461
-0.418550550948	0.200534835988	0.039157704528
0.137797116791	0.111327636621	-0.245015468561
-0.332294765142	0.430073926818	-0.120207993934
0.217131981111	0.294610903484	-0.0930460809393
-0.201555115151	-0.0385058819589	0.220020465104
-0.434226379403	0.402889978394	0.165810420909
-0.359894678845	0.0222101502413	-0.108421536811
-0.0131546348828	0.270961182164	-0.105974946381
-0.43037204235	0.132584333744	0.0881013299902
0.021998710438	0.0824345236656	-0.27594081339
-0.357478071711	-0.0289381947843	-0.0798385221993
-0.275005230228	-0.239520142794	-0.0774874792816
-0.355435825271	0.457470570541	-0.0798849640463
0.345254166308	0.160517463844	-0.132459098099
-0.227948809368	-0.125118800894	-0.0469458990462
-0.405091695917	0.11491276604	-0.0571201940988
-0.0780051449882	0.188960631298	-0.170505673772
-0.410873039462	0.0632637889029	-0.0457804580411
-0.198568942163	0.544104849749	-0.0442685676315
-0.396439797355	0.396953594775	-0.0347672909356
-0.297436824127	-0.225449320285	-0.026237275668
-0.400502979408	0.0167026834907	-0.0241381411217
-0.428499136048	0.251277730794	-0.0248372992507
-0.40453776686	0.1851019684	-0.0188500006119
0.252346189665	0.261802497322	-0.11798590826
0.078544200208	0.296519701018	-0.095933562523
0.31812793201	0.206963774206	-0.119346010753
0.301401035998	0.160631141862	-0.156422536022
-0.0632543219206	0.257843688722	-0.119708444727
-0.10719317252	-0.203580532715	-0.155206782613
0.43033563617	-0.0615959587837	-0.035857505978
0.354290587078	0.109455499445	-0.139733701099
0.299371590457	0.264340860441	-0.0791457890154
0.10605522724	0.322959978127	-0.0549054923616
0.254375386177	0.300755135944	-0.0600938819105
-0.313271950803	0.48531337902	-0.349167539095
-0.413397326083	0.297161223402	-0.0572284715068
-0.0125040073169	0.22766669726	-0.148971040286
0.109616429587	0.238468574557	-0.150291696091
-0.0283846866832	0.189972649976	-0.178624838314
0.130251335501	0.187460557561	-0.183816924343
0.400329978513	-0.118203027416	-0.0745194858322
-0.245422704917	0.497308469019	-0.020746276287
-0.207772110252	0.285680062028	-0.0978576302747
0.244551364213	0.0848161272865	-0.214989419478
0.493933613894	-0.0530459229815	-0.0153178585843
-0.178477810215	0.352500741237	-0.0440815482307
0.125173570885	0.290454255508	-0.105717352779
-0.172801668756	0.245508609853	-0.139812746894
0.397336198231	0.0846202797844	-0.111914382045
-0.251689240321	0.220228664371	-0.13645017063
-0.159683966339	0.312278612215	-0.0778969910463
0.0270859752142	0.254761501869	-0.129981537503
-0.141041369082	0.28106259985	-0.117896353077
0.169858827635	0.318862021376	-0.0685064107957
-0.107726762922	0.229741562837	-0.148780968064
-0.112822873478	0.316454598356	-0.0458317636839
-0.09838216874	0.293964709378	-0.0915602658878
0.250663487062	0.152963571433	-0.182937776381
0.0322269699961	0.70026008343	-0.182885679598
0.0703625356586	0.101263819187	-0.263187709372
0.373263395472	0.178828574346	-0.0898415974106
-0.296656457904	0.174301006602	-0.131547403699
-0.193693237564	0.189517663706	-0.164804147079
0.450392435961	-0.14200684899	-0.0788581456975
-0.020124273286	-0.261667651964	-0.00576728306718
0.0725112404703	0.557939353486	-0.144788731919
0.0556229233143	0.18381515551	-0.1826628543
-0.296452077996	0.380863888811	-0.0947623507799
-0.25901405213	-0.290782790156	-0.0937783877931
0.404020509393	-0.198792667273	-0.078615413532
-0.302367648784	-0.0487085280735	-0.107441823248
-0.363257374502	0.303726615564	-0.0850174182796
-0.256911631625	-0.0576966004643	-0.129778359922
-0.197323560883	0.122513758458	-0.185359277211
-0.0584355671213	-0.283004126773	0.260655350441
0.349192731213	-0.190884074389	-0.0883416071802
-0.221399381276	0.425573248174	-0.0536283792872
-0.3036860531	0.231113874131	-0.101602058465
-0.0406217555109	0.513677940424	-0.119190852866
0.324064805865	0.0475726354466	-0.183542763955
-0.145559146467	0.174267798562	-0.174520504722
-0.231459807216	0.330561081705	-0.0856513496174
0.291352415785	-0.0761662936659	-0.212459565332
-0.138170463506	0.119243573194	-0.184398427359
-0.156221507466	-0.0262328000231	-0.154917175324
0.279660199824	0.00715384990372	-0.215715597296
0.273187184036	-0.163604619288	-0.214783953823
0.247135271981	-0.0728906942458	-0.235134810487
-0.172220668314	-0.0883304629353	-0.126262533776
0.234863837347	-0.244612817174	-0.19025675932
0.229019609416	-0.197157530255	-0.212221620947
-0.138254094713	0.556313268576	-0.105190138545
0.221623970728	-0.0176092373163	-0.242601460988
-0.120500374598	0.0124881915007	-0.172298464237
0.199215263034	-0.136046667586	-0.23914111107
-0.145299696535	-0.181757823069	-0.110574632037
0.051942625139	0.660204176619	-0.223527338477
-0.326936375477	0.0438558184977	-0.144847975686
0.1753841965	-0.0935484168156	-0.255263401614
0.175760074649	0.0594829815483	-0.258884642123
-0.229196984513	-1.11265334346e-05	-0.169605372915
0.14844483225	-0.0471551906862	-0.268008093678
0.1430433376	-0.143391574702	-0.24962962673
0.138128085439	-0.23230310726	-0.203961683651
0.128924453069	0.0498056798469	-0.277741174737
0.122717318836	-0.194792945712	-0.238360478939
0.105590903659	-0.0126352894737	-0.284664403014
0.0947041111227	-0.259945223839	-0.208753827105
-0.312106154556	0.286252441096	-0.0988476348618
0.0763200153797	-0.06976456068	-0.277615610769
0.0728133157215	0.0412271851728	-0.291450777936
-0.08481250263	-0.238639866359	-0.231207079655
0.0634551732256	-0.17128203751	-0.252680432536
-0.336769082864	0.351631061274	-0.0910588074898
0.0566448405804	-0.0100583484311	-0.29063198154
-0.282300280069	0.575964936502	-0.424288554253
0.0494530993233	-0.121686794316	-0.274389765389
0.120910089755	-0.261851758055	0.0438421322347
0.0431003557389	0.594070104207	-0.191410144673
-0.374278432907	0.256386750995	-0.0719381857403
0.0173972909835	-0.212113136769	-0.223097275474
0.0211148867763	-0.0806844013561	-0.284128288855
-0.230460455583	0.0612369516764	-0.179914124493
0.0148279089137	0.15450687473	-0.19452905475
0.279444004255	0.113822161133	-0.187043024081
0.00583201942652	0.0248527933159	-0.293701616016
-0.337568312147	0.193827135754	-0.100321434741
-0.288743291524	0.505319771858	-0.390023710948
-0.00133233250475	0.565303947128	-0.157906580296
-0.00604731842521	-0.150746345315	-0.237517861028
-0.199190843469	-0.13329520316	-0.0940394317149
-0.0131990734091	-0.272071549885	-0.230014666521
-0.290675995038	-0.00209936346087	-0.152641836099
-0.0176681907517	-0.0415745293597	-0.280326789
-0.156418587678	0.473158814508	-0.0785575679804
-0.0235722880263	0.0611105865807	-0.273029635768
0.237249159358	-0.283802344318	0.170089996829
0.226267864588	-0.287828975693	-0.0335268722791
0.11702604789	-0.284765277865	0.236263366
0.444835639694	-0.23696195835	0.0537686963212
0.228873739954	-0.283366204197	0.221221988402
0.333406625912	-0.275098042703	-0.0243914539013
0.1524455242	-0.254901478074	-0.0896369012299
0.100715847072	-0.255809086899	-0.114866873323
0.0533837901337	-0.283761663758	0.26351598658
-0.0799346617816	-0.285204016707	0.212365451881
-0.288801628231	-0.275728370899	0.171608083476
0.274775727005	-0.284111022568	-0.0103754449108
0.329128305339	-0.283663919789	0.026872295911
0.138043022035	-0.254354768695	0.180321207324
0.0949937184906	-0.258942100593	-0.0132034084328
0.209417422666	-0.287073893852	-0.151557394287
-0.423258194805	0.216069579204	0.176144270351
-0.00226122894094	-0.283450157217	0.261824766186
-0.00886863978917	-0.26273640624	0.0773393869186
0.397171739731	-0.254854475025	0.0826489463343
-0.0074856160898	0.683447004797	-0.122750768189
0.18241974933	-0.286816370483	0.0814322776986
-0.374580325554	-0.045223383958	0.00240719902257
-0.402873638878	0.211722723387	0.234063690462
-0.0131456103623	-0.259205599713	-0.112476035672
0.0504454621188	-0.259265221743	-0.0570181746071
-0.328058935537	0.457404918963	-0.271298494988
-0.0978217974413	-0.211425725757	0.218184491907
0.178862221235	-0.284938231772	0.0044533611833
0.0458501356567	-0.279084521401	-0.211750533256
-0.0251180691049	-0.261680517428	0.129264577148
-0.354255093206	0.186688277008	0.185370801635
-0.325363157274	-0.0886207603115	-0.0144064138099
-0.362647017215	-0.041682252604	0.109788977443
-0.340316878981	-0.0782501369065	0.0472696113019
-0.368820590685	-0.00974734543422	0.149634603256
-0.361190863475	0.228620419279	0.270861163066
0.0434048436954	-0.260371721753	-0.00454182814096
0.0568566550467	-0.261197727471	0.082494499597
0.31258165632	-0.271888307525	0.11229540002
-0.309743847799	-0.290050318876	-0.0240747464471
-0.27365441601	-0.116160053647	-0.0158728310075
-0.320035214343	-0.0757211676728	0.116483567871
-0.295881112631	0.207878432712	0.214565120086
-0.0108852673844	-0.257281683834	0.186011131163
-0.279876408298	-0.122543909986	0.0441227732307
-0.305683196167	-0.033762453185	0.194983013502
-0.27881893208	-0.101406637515	0.11687282605
0.165341709484	-0.284210003432	0.217876452534
-0.0378723979352	0.295508421985	-0.0396510476797
0.197271287719	-0.263232394098	0.143972219574
-0.266491888599	-0.291053269003	0.00764647971022
-0.236171250473	-0.133535683894	0.0241487790457
-0.169377134505	-0.162041877049	0.18920669799
0.0552552737433	-0.254962800391	0.194135593568
-0.230881207558	-0.271031513736	0.257369400513
-0.273613343256	-0.281403652511	0.115612636144
-0.195585443798	-0.292045421223	-0.0545702517988
-0.239729789756	-0.0719821714445	0.188611219342
-0.201756692409	-0.291101332005	0.0318618004922
-0.12068113554	-0.290731609592	-0.156268468814
-0.0843084780133	-0.290702216048	-0.233977841839
-0.13357013389	-0.290043475033	-0.103428001957
0.16020256492	-0.287817216516	-0.159434338738
-0.21298300204	-0.288215162118	0.120210196691
0.253963543832	-0.283554104603	0.11618078066
-0.12713581288	-0.290074942154	-0.0464446353486
-0.220443531069	-0.285804417099	0.178641612269
-0.0864140397642	-0.260459831396	-0.103545116802
-0.0538467514294	-0.285888125619	-0.175481444244
0.0704715253677	-0.258635689373	0.13951378283
0.271103793555	-0.282682407812	-0.0628104161464
0.19626094034	-0.281155075679	-0.0780851379535
-0.0924239965283	-0.290548496565	0.0061430120428
-0.136570486237	-0.289646497324	0.128605870032
-0.0452183494578	-0.260831432591	-0.0671269393696
-0.147203830024	-0.284857734654	0.192085607184
