-0.0266640420465	-0.183343984349	0.231707974391
-0.210685642216	-0.0801429769019	-0.118406281287
-0.237636472664	-0.0899968991556	-0.0995302122947
0.000121913616056	0.680364176438	-0.153128261633
0.037427574827	0.109546372897	0.283021567368
-0.175366882608	-0.126152054529	0.17257487887
-0.0488230649794	0.546017184421	-0.147058458837
-0.150722169225	-0.147321293253	0.199155374547
-0.090565248583	-0.19797602374	-0.138882925067
-0.2352194486	0.226090284637	0.188880246561
-0.0251031040313	-0.0407718104534	0.238485199637
-0.116088343081	0.547352382424	-0.122437631502
-0.278163770879	0.608383694277	-0.432727418829
-0.347793575917	0.558434124655	-0.20124408697
-0.247666321495	-0.256620328489	0.239073639947
0.00462885199969	0.066235687322	0.300338637834
-0.0424951506213	0.0127811668487	0.243628548988
-0.347630811979	0.542361110942	-0.17047105712
-0.344556682015	0.553096167551	-0.184529877864
-0.0852225619766	-0.21427349967	0.225535869945
0.0242013861926	-0.116218287433	0.277698273267
-0.0286525852891	0.0692851511617	0.258196770653
-0.351613013113	0.522233846535	-0.147847416379
-0.0713051265072	0.471386446066	-0.0717693275635
-0.0440798069191	-0.253225780357	0.294915938638
0.0161822102004	-0.293799483499	-0.19866967472
-0.344716317431	0.0662635836343	0.204554814441
-0.233332989877	-0.231809030787	0.238175679168
-0.0215041170692	0.045015401793	0.282880024264
-0.222307634616	-0.209662292206	0.221309851789
-0.0258614662582	0.611670357418	-0.167570265138
0.0437205833369	0.0972586436001	0.301063224561
-0.0571292793937	-0.199145485839	0.23563182523
-0.169962271501	0.439529496662	-0.0641242208061
-0.348896210956	0.512888991332	-0.123320459733
-0.339287228002	0.526583737002	-0.125116488397
-0.0341360361114	0.0419619755454	0.262247296718
0.000795801339048	-0.0752519774435	0.263293492197
-0.0196673049608	-0.0644496607138	0.234632414449
-0.0191572516056	-0.0977871449869	0.217128206646
-0.364140646331	0.252777212643	0.278734570936
-0.34937765259	0.496855655758	-0.106817767176
-0.0332681209405	-0.0172036853145	0.243547759575
-0.0585801823093	-0.289391520967	0.0872290569711
-0.0450849862758	-0.000927582158444	-0.26936131888
-0.234573019883	0.164946678676	-0.16395422393
-0.00819254195807	-0.113981051961	0.228240858854
-0.252697713892	-0.241771627229	0.230442513843
-0.103204633166	0.533017440671	-0.128656279346
-0.0392630880647	0.485402372965	-0.0807950651535
-0.193875604983	-0.140149754772	0.102171748273
-0.216226403971	-0.118016123216	0.119245770913
0.0607950036656	-0.289915380289	-0.171784583474
-0.0655050221004	0.0691742845862	-0.204868886781
0.0151301212896	-0.0740227914028	0.286604687088
-0.182088090887	-0.144293242732	0.159767024314
-0.0887183765976	-0.160420011314	-0.114220295627
-0.115029420653	0.600395798801	-0.0613038616231
-0.341268619985	0.507188189901	-0.0974101015309
0.0427436399157	-0.0933904928202	0.297424118594
-0.215554334961	0.369524996182	-0.0717990578804
-0.313783375118	0.0159202746192	0.212422384497
0.00213031413006	0.0994752299858	0.264874470297
0.00975725121712	0.126772190503	0.239743692025
-0.0174151707371	0.0885860470184	0.255582917178
-0.317320883123	0.0418343346727	0.217726689744
0.000804130487152	-0.0208804388213	0.296052439606
-0.279759205907	-0.254199608882	0.171625648143
-0.387343823831	0.277417092669	0.272398771781
-0.229061132721	-0.24398816229	0.248621787458
-0.260701738898	0.451533153867	-0.180230552908
-0.00102873802429	0.0456839315958	0.307156989151
-0.135932091636	-0.0805456887903	0.215646183093
-0.327784565818	0.357002067815	0.277889063659
-0.387447568971	0.382578505058	0.25183994573
-0.376947333541	0.409367220435	0.235836967888
-0.332579311688	0.0974533275721	-0.13927736295
-0.290958786991	0.0553768705934	0.23460273198
-0.119592138742	-0.248071886276	0.228001271405
-0.00693311481329	0.0760435221566	0.283008466419
-0.389941649394	0.303569563671	0.28358505744
-0.0272942322051	-0.0680576531052	-0.263798588053
-0.311681889435	0.150372795237	0.203163258699
0.053743756801	-0.13342135846	0.288176051423
-0.0162994249067	-0.011596206492	0.28278921552
-0.240425291848	-0.206526075783	0.196785603733
0.00477494744773	-0.148089448539	0.245175464793
-0.454624906454	0.27555261614	0.207859506029
-0.0637622125765	-0.187549255838	0.210562592837
0.0154904990041	-0.164546862596	0.255088341776
0.445209875144	-0.207207928765	0.129981351671
-0.0281584481988	0.0192658376707	0.276759186417
-0.386622607311	0.365351290561	0.265390665146
-0.393495256571	0.349894891223	0.26979423003
-0.388607915258	0.332834299186	0.282159006442
-0.0324542406532	0.592815651888	-0.164949549609
-0.355762333953	0.606191840877	-0.313049641023
-0.0210887629253	-0.0777776065126	0.223860142452
-0.080215072074	-0.00866810723097	-0.182688008618
-0.337461545184	0.00399382791313	0.190398072874
-0.28042366843	-0.0192418809149	-0.154562362968
0.0187414152717	0.0660173468477	0.308398957636
-0.0526758979588	-0.243477851847	0.283524579401
0.0173694434356	-0.0573713651189	0.294673257722
-0.0783882131238	-0.227475554698	0.247590578247
-0.211978023003	-0.129006361791	0.0997568470132
-0.197169976652	-0.143863630323	0.081255359273
0.0108529210341	0.0369889733094	0.316120884328
0.0192771833169	0.0877634882148	0.296077003352
-0.0391342403599	0.0612726647797	0.246020563599
-0.146064101054	-0.104634088505	0.206295178235
-0.0473851729923	0.589367028883	-0.157233903818
-0.404889051414	0.369559267513	0.246295597464
-0.399201276601	0.386734664448	0.238644438697
-0.377588326745	0.248589725484	0.267205035932
-0.0244669086987	-0.269569371835	0.301359855059
-0.0807549320648	0.572253923441	-0.142476895293
0.139212236012	0.13160450575	0.270581962945
0.00583069165157	-0.005230097883	0.308413490432
-0.0587427959033	-0.219208230016	0.263436197163
-0.322752707343	-0.000123115214752	0.199915532527
-0.369496063584	0.427247735134	0.223063074044
-0.350089391917	0.0330798871046	0.19429267174
-0.383916746211	0.418275481387	0.221192266907
-0.109721705957	-0.185125164672	-0.117295908279
-0.218950825122	-0.200301602269	0.200124184656
-0.353389344496	0.263141697377	0.28806350305
-0.298639212616	0.00596527204234	0.216952169866
-0.297854530422	0.0385151837526	0.22901457242
-0.196934549895	-0.278433173717	0.252042402933
-0.21393021677	-0.0386615158297	-0.156503531595
-0.317206976704	-0.26193298582	-0.0148844258592
-0.0063260398548	-0.0288191178484	0.283471140668
-0.384803239749	0.307367172935	-0.077902483744
-0.279753078241	-0.274430731098	0.131213089615
-0.0139010870308	-0.172707513666	0.218508109915
0.0110865946316	0.0126888520526	0.317049460757
-0.344874711153	-0.00440018392603	0.17767753
-0.401554644892	0.321190008087	0.274939186557
0.0544482092483	0.108756842092	0.290953201099
-0.270771243152	0.291020123107	-0.103384702562
-0.322720628353	-0.274199502649	-0.00637140282775
0.420211444301	-0.198831707348	0.157007707689
-0.0209848207988	-0.238078756655	0.299254058489
-0.358086280946	0.585347330683	-0.277284257256
-0.414364020444	0.314329378445	0.260217960884
-0.411104809479	0.330079185179	0.262513497613
-0.0503241005627	0.104622378479	-0.200307181838
-0.31116535611	-0.256702666308	-0.040825680191
-0.147974860805	-0.280088081021	-0.188548076841
-0.105192730201	-0.121235687151	-0.123001490442
0.0312070414834	-0.0987470806486	0.287959037379
-0.411210817374	0.283897527016	0.264979995175
-0.275738879882	-0.244900113564	0.187029072872
-0.0607385987178	0.244030203979	0.157058549995
0.0332396746891	-0.138455015904	0.280561470971
-0.077099068914	-0.249722662396	0.266617267087
-0.312461178768	-0.25496025111	0.0070192551231
-0.374108021476	0.266210947965	0.272398794189
-0.398756139911	0.259282062003	0.269276990113
-0.320750964789	-0.0155625773921	0.193101316454
-0.356051352388	0.102827918796	0.187138071062
-0.338099891128	0.0205718742658	0.197940535971
-0.349316947411	0.385647297641	-0.0838490270518
-0.279098349581	-0.261982375974	0.196631683882
-0.325103375796	0.124970203138	0.207940139212
-0.33336465832	0.0359060129412	0.206478057065
-0.0524567579714	-0.186694487117	0.222090508217
-0.421607673311	0.119237803947	0.105862757164
-0.0865913318521	-0.0982960241263	-0.136070101078
-0.282788467294	-0.263407488565	0.148448801806
-0.335648873549	0.113012289856	0.20444066578
-0.335285967309	0.0952601338435	0.209540272135
-0.337523068925	0.0533045996019	0.208450495268
-0.0968068437701	-0.242137435022	0.235695897474
-0.0347623208359	-0.175735887348	0.205702029499
-0.299431482532	-0.239811531884	0.00848310361819
-0.287298266749	0.0220372330329	0.229712029621
-0.216512706211	-0.10717126586	0.144128429769
-0.416630181318	0.0672598242893	0.114295839681
-0.416638375748	0.107692621025	0.118228505128
-0.414495839564	0.137376514899	0.111963918516
-0.438428420462	0.430006488071	0.124000614044
-0.299393801392	-0.254383447995	0.017731767721
-0.162827103067	-0.142725414195	0.187658400708
-0.163035649249	-0.125168957236	0.188251273814
-0.0351416070537	0.0250862163098	0.261800297247
0.0318351833538	0.561005345831	-0.17048551199
0.00370563182038	-0.0492897725987	0.283131444241
-0.413538374845	0.260335075464	0.264273521999
-0.348933976878	0.091162435811	0.197794183614
-0.109598195365	0.0131491032944	-0.177537866117
-0.256213505391	0.624321187304	-0.419169198415
-0.165439389354	-0.104612706974	0.188299302837
-0.0103445475008	-0.131703217326	0.223527732779
-0.11126679425	0.028596382914	-0.184299605257
-0.440612051374	0.439284308159	0.111327330224
-0.109634810977	0.0478351132599	-0.187220901276
-0.339053899821	0.540694533253	-0.150280803933
-0.100228069712	-0.261080140535	0.236498768108
-0.360239433631	0.448556234528	0.201869529152
-0.213931543621	-0.00909029222557	-0.172662049666
-0.068606793805	-0.238036751665	0.271721302591
0.398814939515	-0.256089334818	-0.029073769752
-0.0728024920092	-0.199827103026	0.220828126706
-0.265312008038	-0.112436798128	-0.0613964601662
-0.28427174829	-0.234706589517	0.0186567175919
-0.0189341473188	0.0708401169684	0.270485893219
-0.0294904105725	-0.0446694611654	-0.27376580971
-0.0284614624624	-0.190617315864	0.250675554392
-0.109138186013	0.0624715386004	-0.194655968691
-0.433122046051	0.352480197902	0.159706204031
-0.406536670352	0.0625112872251	0.128594134124
-0.408577158838	0.0886907360185	0.131557483584
-0.405943999031	0.127095362782	0.130011773092
-0.414451897384	0.341754016012	0.251775524323
-0.133725637938	0.592353134715	-0.0823849566845
-0.0255278179738	-0.00675825426777	0.268106810568
-0.0173958729267	-0.0278451327463	0.263004870107
-0.39884081421	0.0401781452853	0.130931755032
-0.404858523972	0.108920906201	0.136162872085
0.0277060484605	-0.0696996865796	0.297671140219
0.0112257773969	-0.133185432679	0.25604902733
-0.0171324967163	-0.27494883349	-0.233833183815
0.42761552164	-0.230061409238	-0.0415891143557
-0.345560707424	0.131079069372	0.19012151091
-0.42036202547	0.441037127446	0.147516212572
-0.284294731522	-0.255247410681	0.038412437956
-0.0193201736681	0.0305582926689	0.291386233262
-0.085715435487	0.54908657974	-0.139322657797
-0.3908290485	0.0167070005789	0.138915411468
-0.395960496098	0.0525221382923	0.140821807543
-0.397514966722	0.0729123364548	0.143301486416
-0.399302452316	0.093908172395	0.14416068186
-0.39708305684	0.122510861984	0.143291067551
-0.389517791771	0.167269604305	0.133513415899
-0.106228060971	0.100052600689	-0.193568414994
-0.377135753524	0.357539916619	0.276854078094
-0.273401354279	-0.239314299104	0.0349970220381
-0.26626451597	-0.22663221117	0.0247699663195
-0.35436341869	0.559125941575	-0.220665856875
-0.00566778507095	0.027624555472	0.30829642183
-0.109817514549	0.116260536051	-0.188990956817
-0.441342816112	0.23776827661	0.121616022631
0.0291767898926	-0.0482342089626	0.304485776048
-0.140575699503	0.582845279207	-0.0503012631986
-0.389060558982	0.152707350341	0.140910812249
-0.0167804799469	0.00928905815645	0.296142147863
0.000623069784563	-0.116270846407	0.24131238871
-0.185771888078	-0.182109584684	0.0437566454031
-0.424767462896	0.285555460515	0.254455852355
-0.396434820705	0.405415176276	0.224283749936
-0.386025672424	0.428701704209	0.207848494536
-0.426749667559	0.419192154473	0.156558338236
-0.408596862267	0.453440985495	0.149508157666
-0.344549616255	0.604761068517	-0.297843127039
-0.250292318208	-0.21947410654	0.0247231839477
-0.287728838041	0.278034048339	-0.104023437305
-0.389635835705	0.0855373599466	0.154599139868
-0.41650515381	0.433717253224	0.1648805605
0.0062324539283	0.0883545031053	0.286232347582
-0.0132523706104	-0.045579683969	0.255992998161
-0.00481721990177	0.104504714533	0.246761506555
-0.270236399359	-0.250382102486	0.047911611905
-0.255691766455	-0.230115248495	0.0368828724584
-0.173386165737	0.545679395898	-0.0183485526958
-0.250805868892	-0.216809109223	0.206961952771
-0.0497220995801	-0.207001245764	0.254075953806
-0.0602757593627	0.0865785744489	-0.202353041883
-0.380255100262	0.010483751673	0.15200637385
-0.384021421239	0.0317149459406	0.1567966833
0.0119368532317	-0.084538957966	0.275063283637
-0.426108229838	0.408106707985	0.175125492279
-0.416903475663	0.42168259447	0.179608577766
0.0132230275066	-0.107235700668	0.263174717084
-0.383708482988	0.00166519497276	0.138545702049
-0.26429994651	-0.261899509185	0.0594235635474
-0.234425449106	-0.213073333803	0.0236633682253
-0.214723503831	-0.172757104502	0.00895525755887
-0.420157155859	0.455741782581	0.0175764275237
-0.381360438346	0.0485503642372	0.163195823429
-0.383338068321	0.119650268011	0.160000135604
-0.44679485262	0.246708724413	0.224158821527
-0.248433197655	0.575958961472	-0.426699916975
-0.449231621369	0.284147547208	0.223659930044
-0.436971065774	0.3222811865	0.218768840862
-0.42190241731	0.405705563331	0.19009872688
-0.405248715531	0.438137211702	0.177210136214
-0.00297779699787	-0.0903403521827	0.24598514283
-0.00871994938791	-0.065888814243	0.252621750832
-0.0433843925976	-0.00296618098876	0.233782749184
-0.253572844587	-0.243448837753	0.053610638404
-0.240684740857	-0.226129738663	0.0409286951046
-0.221561695841	-0.204983485614	0.0214911436293
-0.39465229128	0.45896380639	0.156838968578
-0.277276088353	0.393645158162	-0.0966711741271
-0.290058166678	-0.249870735927	-0.0683913047661
-0.370657951456	0.0115452207605	0.164746640584
-0.37332734469	0.144266232292	0.160357554714
-0.433313405508	0.345461953693	0.210126189261
-0.424664831613	0.387038718447	0.20357658259
-0.210050244169	0.5218452328	-0.0126601502187
-0.263244582995	-0.247844064704	0.217574841606
-0.210956777792	-0.190996351853	0.0213479174232
-0.280069325379	-0.0479274593033	-0.130711666983
-0.372906810405	0.0320892139458	0.172216942293
-0.374603876803	0.0763310109769	0.171658410078
-0.373721692582	0.0948991864103	0.172786562899
-0.364484309391	0.160013684428	0.163548871299
-0.41671525944	0.401330900834	0.205364737137
-0.034337892807	0.103130794146	-0.204999901588
-0.191177251933	0.530101877851	-0.00963638093452
-0.236406360816	-0.234688929657	0.0558683852912
-0.0341968266021	0.534609397107	-0.143785961053
-0.37174392075	0.0507635172406	0.176527569271
-0.367134878252	0.119867063108	0.175837417957
-0.363389690849	0.135993978911	0.173229827944
0.245823679436	-0.259692317977	0.236488964197
-0.439255618456	0.271585086306	0.242543650526
-0.42781194363	0.338744044591	0.22789743685
-0.396970488651	0.43308360893	0.192731471713
0.0131793011899	0.10083829648	0.27661776868
0.0390432615797	0.123427361576	0.25032462332
-0.0888121508683	-0.2079746557	0.21189304741
-0.15649555111	0.573119309515	-0.0489312551124
-0.00808385840946	-0.160254492257	0.225280006361
-0.21531737758	-0.215010434406	0.0418817698031
-0.433742717158	0.29570933817	0.24336285521
-0.41470128703	0.39062222117	0.217627192763
-0.400010954276	0.421377949384	0.204003537146
0.0259911674346	0.11391749709	0.264318337364
-0.160832412263	0.563454592787	-0.0329307956178
-0.089560520006	-0.258381660202	0.249527864571
-0.205127329696	-0.202523387605	0.0357106950483
-0.197029615656	-0.183762484796	0.0323789693792
-0.375323115593	0.444738311913	0.197240448852
-0.0848761469019	0.158844251715	-0.180622329236
-0.344019193038	0.157141323187	-0.110801850661
-0.359645622461	0.0252392890868	0.183985313659
-0.360356610629	0.0448393526547	0.189307992002
-0.361715865872	0.084389242182	0.18455268776
-0.35370596105	0.15366560055	0.176129356443
-0.302663744825	-0.23822924341	-0.0155024342111
-0.0827283798074	0.0751748339734	-0.201015009288
-0.0634023083877	0.575008139719	-0.149923644426
-0.425835943388	0.322176871604	0.239969571189
-0.419956723254	0.348195928894	0.23745642932
-0.413274979493	0.376206335462	0.230799387737
-0.263987872748	0.626757410756	-0.439371849963
0.138006933413	-0.27487874026	-0.00407698729819
0.0937054357147	0.124249087278	-0.221068785285
-0.020249851279	-0.169029378079	-0.22208067174
-0.28326898148	0.5825727686	-0.421356692878
-0.259134441771	0.542257356148	-0.427560519991
0.209320035267	0.303191046661	-0.0807819300293
-0.28474474209	0.558048576012	-0.417125693421
-0.307641947708	0.645503767895	-0.414888422099
-0.287957401147	0.533644096119	-0.412832251974
-0.289782916421	0.57299065416	-0.407302747854
-0.297796902364	0.612225299664	-0.409738968997
-0.310585185098	0.63037070165	-0.407199849509
-0.292117382593	0.556934789151	-0.400181393558
-0.294258050514	0.591035925125	-0.405234761601
-0.309607435271	0.617321345486	-0.398838294815
-0.327254176315	0.634524304098	-0.395427057058
-0.279333617512	0.437282330576	-0.211425275987
-0.297319112142	0.533061988715	-0.387594968365
-0.300474601837	0.5805166067	-0.389272044936
-0.299849013392	0.516131230946	-0.381684077588
-0.300493233943	0.565719166637	-0.383378813383
-0.340559001323	0.62744287562	-0.381916778907
-0.154104916144	0.427667320276	-0.0463595922115
-0.310810560845	0.58845744446	-0.376607546817
-0.32383895097	0.610146963722	-0.377664503467
0.0865771599709	-0.289442190372	-0.199961336649
-0.303140962478	0.501313558124	-0.373716984006
-0.302732113924	0.533708531338	-0.370534236307
-0.349986900492	0.620420532011	-0.369620642503
-0.304469243943	0.517989312862	-0.362308024733
-0.312701050188	0.576120145873	-0.364601215569
-0.307620408397	0.547468482856	-0.359152488227
-0.333911173125	0.598494844087	-0.355413207056
-0.347719112228	0.607221822731	-0.356229523858
-0.312196293794	0.481475329905	-0.347466362097
-0.309508728311	0.533630392906	-0.347297759172
-0.310532240816	0.504845033296	-0.337356928966
-0.319475537029	0.565702491375	-0.34193784101
-0.327169150933	0.579829784307	-0.342194473616
-0.342554726993	0.58895672834	-0.337053337798
-0.35569258279	0.597361471409	-0.3397156884
-0.127956997541	-0.205744910708	-0.123325345308
-0.312485220479	0.522939215633	-0.332287890296
-0.318398564582	0.552433765767	-0.332379677918
0.259471256337	0.143046219666	-0.187701922086
-0.315068152968	0.489492640216	-0.325089961449
-0.313817119884	0.509650215086	-0.322752889481
-0.327712874323	0.564319761736	-0.323280522378
-0.337644734507	0.576133492539	-0.325496343943
-0.356265078904	0.587007301053	-0.326245376184
-0.317920655818	0.536546208087	-0.320818847462
-0.452195623856	0.289417301198	0.142043348845
-0.316999318301	0.495353593608	-0.309281597151
-0.317666919731	0.510555149117	-0.304389415228
-0.339289174031	0.56272842598	-0.305421184799
-0.356469182139	0.573879139762	-0.307063141023
-0.432104034967	0.406552273028	0.149112583725
-0.322154133655	0.532171568665	-0.302695940791
-0.330116300276	0.550552641932	-0.301897897794
-0.322272938927	0.479610638891	-0.290580555472
-0.319180392709	0.495481393734	-0.292302403003
-0.364506251222	0.584582791407	-0.295876788349
0.217425444606	0.259829258846	-0.135874412769
0.21332277008	0.242839012344	-0.147826508632
0.499893225097	-0.073058483683	-0.0327754173266
-0.264590749086	-0.234725803722	-0.0767940116166
-0.324227410363	0.524729662264	-0.288292786741
-0.352494803144	0.558359227524	-0.286794056087
-0.440964106257	0.322457771615	0.203088766372
0.120277506393	0.324469942789	-0.0415189256895
-0.0699583065987	-0.19901543708	-0.178256773896
-0.442794919203	0.390977399875	0.0633058311355
-0.339037787121	0.54562968179	-0.280007280016
0.212579008923	0.225292279562	-0.157157217618
-0.270362732448	0.50522550679	-0.378282287575
-0.0434641856693	0.0166971628834	-0.270162312572
-0.328721970212	0.460756217285	-0.274404982863
-0.32346721175	0.483042145648	-0.271563338811
-0.364825752352	0.569680285124	-0.274960624816
0.0604673170255	0.308839600323	-0.0536375649727
-0.035958694476	-0.053513112792	-0.262857975307
0.184549684132	0.266314822267	-0.135356113075
-0.323453623702	0.49969177857	-0.267775722337
-0.272525753768	-0.245434607358	0.138736946175
0.199373239436	0.21824313061	-0.167549128261
-0.047666908887	-0.0314819271445	-0.260767354623
-0.0548980601069	-7.25788271567e-05	-0.257445788555
-0.0471779972725	0.0308437146983	-0.260482594094
-0.0363415504848	0.0603180250445	-0.259495920083
-0.354507944314	0.545087340483	-0.261430982102
-0.261404144635	-0.226891803279	0.146610924631
-0.0131674795106	-0.108080902704	-0.256258799008
-0.0230815134988	-0.0975207491647	-0.250656827468
-0.0276108747189	-0.081030466537	-0.254031085204
-0.058081709668	-0.0170347403718	-0.252149694313
-0.0544364888959	0.0179264846415	-0.252735795991
-0.0464107961346	0.0470824214892	-0.253548937039
-0.329904515518	0.450952666254	-0.252693018293
-0.327354672999	0.477594946221	-0.254292066978
-0.327711408415	0.511818907499	-0.256984050838
-0.341701499913	0.531238047904	-0.253285175017
-0.363952226938	0.55648651756	-0.254318841063
-0.0234526078513	-0.118718650184	-0.244180710375
-0.0408118032005	-0.0658838314848	-0.247759799599
-0.0572635845922	-0.0309962798795	-0.243287121609
-0.354337943533	0.58012221588	-0.259767339186
-0.211338672931	-0.197223215276	0.161699877122
-0.398987863329	0.0252264483319	0.12255730941
0.159828720176	0.291069879239	-0.103889848595
-0.0510627368589	-0.0494483254713	-0.242069614811
-0.0634778092304	0.00834248364032	-0.240931226308
-0.0422779223824	0.0671072866606	-0.242130053631
-0.0319719260315	0.0807983215199	-0.238705456443
-0.326400046892	0.490798093166	-0.243998067623
-0.331817545039	0.511593510265	-0.239583519624
-0.356631964647	0.53671051844	-0.241959455512
0.201589855956	0.257690962799	-0.141179446413
-0.0245468251382	-0.138162484918	-0.232036217982
-0.0339051102767	-0.120244505338	-0.229912006526
-0.040763716591	-0.0987238941723	-0.23044563445
-0.0447508085398	-0.0809304558247	-0.231673853368
-0.0657254307454	0.0219452388132	-0.233178643681
-0.0518868806866	0.0573092060038	-0.230011532072
-0.0651290435579	0.51590020369	-0.130186352999
-0.332326055117	0.472675182736	-0.233889285583
-0.343851826551	0.523349373162	-0.234658494044
-0.427455844234	0.110859111002	0.0905293348581
-0.0572486506093	-0.0529308890036	-0.22551710899
-0.0690864789302	-0.019788908888	-0.22491353643
-0.0624522381774	0.0369738861699	-0.22792294084
-0.0456735921993	0.0720686889621	-0.224035706854
-0.337055601433	0.456856615363	-0.227486559778
-0.329113474489	0.496181646694	-0.227917853332
-0.243691120915	-0.217292058368	0.141011177968
-0.322488600736	0.181839873948	0.195605347157
-0.0709154304419	-0.00219880631739	-0.218546081868
-0.0335674972496	0.0872928760229	-0.22359485231
0.118930574972	-0.264055637006	0.0510984785066
-0.357065904715	0.528912963779	-0.223254311699
0.198756685039	0.109171914506	-0.218517127355
-0.0563837882047	0.25722329461	0.142229967563
-0.128233669976	-0.259716336106	-0.21206928645
-0.113107189461	-0.241041393084	-0.209187761082
-0.429791486257	0.362621662678	0.135228022867
-0.0316719722307	-0.152713340911	-0.213482725319
-0.0391830440275	-0.127398181845	-0.211082268079
-0.0677380790272	-0.0360741454021	-0.214117940682
-0.0721313876591	0.0191020736498	-0.211552386759
-0.358538537234	0.544937835897	-0.213776046104
0.205408616568	0.271472013548	-0.128138814027
0.0980752593163	0.21734914646	-0.171457173691
0.0481293994434	0.2676199454	-0.110323022658
-0.0345641965662	-0.171810983269	-0.203346678508
-0.0440324356996	-0.108568960504	-0.209342438363
-0.0510157415044	-0.0927056452851	-0.209505277451
-0.0572226916912	-0.0723390901	-0.20659955093
-0.0752913740095	-0.0167518957148	-0.207796617951
-0.0763499220347	0.0342680873929	-0.205608089524
-0.424002862246	0.0918865812368	0.105321762521
-0.33141242948	0.483285953917	-0.208358082697
-0.346250510732	0.512152422446	-0.208268252255
-0.354792378375	0.528620093136	-0.172794185487
-0.0147553354448	0.194658356526	-0.177030671345
-0.420480618963	0.0517749787987	0.0910040848406
-0.063832774634	-0.233969080982	-0.234689411743
-0.0632548348106	-0.0565344729803	-0.201973368539
-0.0853241687087	0.0135913555717	-0.190117882563
0.00809822626062	0.294288235351	-0.0553678587048
0.0765194603569	-0.277167514605	-0.210181788401
-0.179092177011	0.0498406815845	-0.185619141986
-0.359694865583	0.527496384102	-0.204881363036
-0.434066161034	0.35449049375	0.18336985544
0.0331810696796	0.292553243233	-0.0717677909601
-0.137402680232	-0.250136410308	-0.190288565452
-0.126008338807	-0.238012334997	-0.192300067306
-0.0584677900915	-0.203449543702	-0.202783375859
-0.0423722761876	-0.134136199622	-0.19580089044
-0.0709411021269	-0.0410507178563	-0.195098371049
0.0528149091966	0.314861916219	-0.0249101416294
0.0668315250549	0.295519861134	-0.0860965678706
-0.331523093087	0.447602798438	-0.204675068892
-0.33534428164	0.496920947158	-0.198838467519
-0.355609922138	0.541514635732	-0.197499151741
-0.45822535022	0.283085105097	0.121232358907
-0.0563636555023	-0.195920367096	-0.186472780783
-0.0457160461892	-0.168144514855	-0.183790615114
-0.0433575263595	-0.153570568713	-0.189455562047
-0.0552920283377	-0.0969000847717	-0.186598692671
-0.0624894921078	-0.0707816334533	-0.18859383793
-0.443316156165	0.342784095126	0.121429145072
-0.334667704554	0.479018328984	-0.187806666674
-0.358361297941	0.516905540218	-0.191272141958
0.174146672449	0.251764411808	-0.148697568256
0.017274857579	0.66250255262	-0.192918474126
-0.12970661682	-0.230549911722	-0.177864917513
0.126944540653	-0.269281001565	0.0295773611315
-0.0506387092522	-0.123254545119	-0.179392159205
-0.0697562305391	-0.0582390542582	-0.179815934481
-0.0844545972733	-0.0255729269686	-0.172161868739
-0.402736260165	0.0156618058906	0.0913248046865
-0.326494767203	0.438494262798	-0.18275054866
-0.341835633586	0.494881278375	-0.184254019669
-0.0567243817541	-0.109090188849	-0.17416025742
-0.209921949437	-0.285842436603	-0.121901144391
-0.250611450528	-0.22738978796	0.129342155007
-0.234982570878	-0.219629053115	0.128079903928
-0.191876988655	-0.171777293201	0.125525596539
-0.337217254228	0.449092529975	-0.175603207016
-0.0664757473852	-0.179927635295	0.196543542688
-0.190842570024	-0.152966513609	0.127047858824
0.00669121388555	0.0698581827758	-0.28015419443
0.0067084461023	0.664287178789	-0.180541472735
0.0134431898413	0.679561570367	-0.178363105196
-0.150261518824	-0.262773972286	-0.167236491482
-0.137983425455	-0.238859492492	-0.166283699928
-0.103100465998	-0.208114136882	-0.16783492221
-0.0513169942399	-0.185168861464	-0.169904095565
-0.051438754219	-0.146158667258	-0.170327801751
-0.337804113323	0.472324501677	-0.170488639924
-0.357485367012	0.512401355662	-0.174243669031
-0.452983325191	0.28324268962	0.188018018537
-0.441285165333	0.452992083847	0.0614788444634
-0.0647878670075	-0.192243615463	-0.159736807056
-0.0549928549704	-0.132042664977	-0.162967111943
-0.0682479483497	-0.0844997316363	-0.162509082525
-0.124379106421	-0.0168621967372	-0.167451026895
-0.44016958377	0.405124767871	0.125457164835
-0.344279636706	0.458744764744	-0.16340415373
-0.34471765397	0.486214444134	-0.164650260407
-0.355202213944	0.498233846726	-0.164291933594
-0.187643396181	-0.145768096836	0.144698103697
-0.0103166503025	0.655908016393	-0.164962096504
-0.266859447242	-0.226223322036	0.164097057812
-0.128847812676	-0.22076811475	-0.15250628639
-0.359887887389	0.614522049508	-0.334518493621
-0.0539674538965	-0.147511725294	-0.154598945379
-0.0680695594935	-0.0981411590692	-0.152356348758
-0.158681267389	-0.270116039342	-0.147092409832
-0.147925466819	-0.24562854217	-0.14845060338
-0.450811758428	0.254918956148	0.123080177509
-0.0524299618457	-0.163036600645	-0.150201002818
-0.193903699038	-0.220527370367	0.0729690716739
-0.234108399421	-0.244862249945	0.0913732411074
-0.211757221194	-0.230182549196	0.0896600528211
-0.0545323620444	-0.286917154197	-0.240875563286
-0.35294472541	0.489153583094	-0.149310059415
-0.445386039925	0.436924414922	0.0802970257757
0.0414408924024	-0.287570861602	-0.211705739803
-0.139078814996	-0.227177712123	-0.140432542897
-0.0561368303267	-0.179375554231	-0.141793980842
-0.0787992047367	0.182557130983	-0.17465088451
0.164919437495	0.226923493841	-0.170302177553
0.239815260553	0.160996841989	-0.174801329531
0.0465022303065	0.131987290527	-0.198977930138
-0.0558885469023	0.140901311463	-0.192245962444
-0.34339990036	0.449919955958	-0.145911252667
-0.340343933181	0.468047135848	-0.144152979812
0.372965300203	-0.237163697596	0.136156436436
-0.453298176229	0.316924982641	0.123747384236
-0.0352673270863	0.640103838862	-0.149627256198
-0.127562586741	-0.212780399151	-0.138326453051
-0.227815756335	0.509239218451	-0.0226660044802
-0.0581099587825	-0.153915953825	-0.137606042417
-0.062602955512	-0.132579487014	-0.133439856319
-0.337975416103	0.0256113297204	-0.136896253899
-0.345372119256	0.0532782097464	-0.134040097725
-0.430096672574	0.397368721254	0.0388853379072
-0.375770680775	-0.0354826678886	0.0724474479076
-0.411855389364	0.382036935482	-0.0227111162217
-0.0172441036939	0.6656990001	-0.142841826797
-0.349921770145	0.0942885028282	-0.129027151679
-0.0339443230136	0.268193220913	-0.101136953546
-0.424623547159	0.204900843166	0.0370507128438
-0.328704100938	0.426783415959	-0.131674446975
-0.34536919324	0.455845334647	-0.12973863557
-0.345888346747	0.474047351657	-0.130870916412
-0.35421716415	0.499610262422	-0.135550981606
-0.451263691269	0.287531850151	0.171453914742
-0.42896513259	0.37925078403	0.123239315796
-0.444566912762	0.396010703372	0.0782969525054
-0.0431118668367	0.644255661494	-0.13647093445
-0.0304770191247	0.656795894528	-0.134587156286
0.310397683088	-0.175313640267	-0.183284062554
-0.104582242162	-0.288380197352	0.175637863123
0.2803229955	0.15622632516	-0.167947699196
-0.337612688506	0.00967930697921	-0.125442369517
-0.356257077083	0.0588215567791	-0.122406232133
-0.408586013254	0.0100634978602	0.0717049957701
-0.442925935324	0.352155724937	0.0773004704873
-0.432533995989	0.373164818983	0.161706592152
-0.431646704868	0.0715134718993	0.0714765193505
-0.329458539056	-0.00891001741808	-0.125031849535
-0.355350384063	0.0371228918674	-0.120829515369
-0.362785839212	0.084668202922	-0.115758720846
-0.0506542192341	0.188631471031	-0.170920206235
-0.412218440471	0.0179192988433	0.0207971380642
-0.337233162867	0.433233256493	-0.119105464466
-0.342049662146	0.465704370563	-0.116501574566
-0.0714326163096	0.62825299736	-0.121223756346
-0.462492307544	0.302456946901	0.0778346353206
0.155038248649	0.101435371284	-0.248819558991
-0.364251281479	0.0495066053196	-0.111574157529
-0.358135907945	0.125166749519	-0.10976555058
-0.356197805521	0.14241781323	-0.107672165902
-0.443715775284	0.305164419339	0.220435562726
-0.411658951845	0.153957784549	0.104251389282
-0.464373655726	0.276334917719	0.082648894502
-0.0944813885155	0.613618119742	-0.111925978473
0.222295295909	0.278639037275	-0.113017997727
0.083446428304	0.307334240281	-0.0732548269926
0.0201028769257	0.0924371913955	-0.264981217534
0.0548607135724	0.112754386271	-0.240943794924
-0.374557136874	0.0870266835865	-0.104042198151
-0.366189087598	0.111047336963	-0.106841562518
0.288035554619	0.29000274244	-0.0346457701264
-0.228528757192	-0.198761609693	0.00298886221836
-0.111427878755	0.600550114974	-0.106865983296
-0.428558440203	0.124935014679	0.0791846486473
0.176750024776	0.1548922787	-0.185219626367
0.0707045742539	0.197107967278	-0.179345351579
-0.373686416476	0.0537320512077	-0.0979324188049
0.470138463097	-0.0857731702768	-0.0508804603643
-0.0438417655038	0.283806635548	-0.0658224318662
0.390568853781	0.193598244046	0.0495357909136
-0.262199722816	0.543200295431	-0.230712447074
0.074088352665	0.0529640975219	-0.28825298557
-0.344224246339	0.456847300969	-0.100342646595
-0.132837765582	0.578038207726	-0.10109724816
-0.0433822141766	-0.28454633267	0.278184022622
-0.444120068257	0.221723299712	0.0380928020308
0.150991453479	0.110911804401	-0.236601662379
0.199642253594	-0.252560909097	0.24489411145
-0.205494778113	-0.127136202594	-0.0925128154238
0.147665070083	0.182937016874	-0.180412153146
-0.345652616387	-0.0370446741357	-0.089161101655
-0.376085690207	0.0379447415592	-0.092304928952
-0.383620597449	0.0715959960273	-0.0927340021938
-0.371044468987	0.1312155882	-0.0949400932502
-0.363528625447	0.166175614144	-0.0903250211675
-0.340171576783	0.214609770972	-0.0864297874409
0.0154168255224	0.215518115963	-0.166198792376
0.0150903384417	0.248692328171	-0.129528347646
0.343515044499	0.175668230654	-0.123899292259
0.0542369665521	0.15175730927	-0.19830721712
-0.0242080660541	-0.264332614668	-0.00538889513956
-0.339956960885	0.422622730258	-0.0925077674058
-0.348907990931	0.439295503945	-0.0928494116738
-0.349714930798	0.482907343673	-0.0913543605694
-0.438352466424	0.331992899813	0.188507335955
-0.457377014705	0.258775988201	0.0394638912986
-0.428224504262	0.0881383489041	0.0231105598049
-0.204373640458	-0.161081356322	-0.0812717033683
-0.363930444481	-0.00598865587081	-0.0884998874153
-0.372375202606	0.0125109785728	-0.0872539461321
-0.385696256141	0.0520111271962	-0.0845601114701
-0.3813495217	0.111074086078	-0.0885398732323
-0.375017957713	0.14655516914	-0.0870250189881
0.00878315133051	0.238463029489	-0.140538340078
0.338488359852	0.142335275155	-0.145878777951
-0.157654146153	0.555542817618	-0.0874581893879
0.125570348756	0.308239815183	-0.0822436759799
-0.207600815357	-0.180370019328	-0.0764609950811
-0.0381462857594	0.208836393713	-0.159977482972
-0.383586425607	0.021931009684	-0.0786946059289
-0.395450653875	0.0723272646117	-0.0802112357664
-0.386858753223	0.1308432519	-0.0806911986715
-0.376204820142	0.163477930923	-0.0785472531486
-0.351717487088	0.197806532695	-0.0821699439214
-0.354122716589	0.212894324541	-0.072868699853
0.0981081758749	0.228759273799	-0.156987584358
0.300856045353	0.0834987850362	-0.190646403529
0.028816432101	0.111911208933	-0.227063240549
0.124725101622	0.129926497539	-0.207354149547
0.0813200928428	0.110914333316	-0.246947289178
-0.346574130096	0.411542518914	-0.0810553398586
-0.352208935915	0.470047786246	-0.0812380612104
-0.264367433968	0.492191302554	-0.300106302485
-0.279269439102	-0.237408203621	-0.0689536679516
-0.231292044478	-0.214978791129	-0.0736051340264
-0.213396457919	-0.19690789256	-0.0742490316324
-0.214336144672	-0.137561832607	-0.0696829807325
-0.30164489477	-0.0740367377003	-0.0775875448549
-0.315955459228	-0.0666715420828	-0.0721217211302
-0.340343691769	-0.0518796887564	-0.0697011177216
-0.364312851036	-0.0314306398508	-0.0723470766546
-0.373950404646	-0.0140045465005	-0.0699758794374
-0.398063268963	0.0886746812755	-0.075001256203
-0.385562932549	0.149647468091	-0.0739981441058
-0.372322538903	0.178294321868	-0.0751549355478
-0.0176362887894	0.285429409554	-0.0656420131807
0.0221744872504	0.154039686382	-0.195860656402
0.0293394080949	0.140289354285	-0.199935944715
-0.35514096163	0.436672398673	-0.0711852230591
-0.430893697223	0.0948814027087	0.0835561337998
0.202712762375	0.123285460136	-0.195121387473
-0.245487133999	-0.217381827573	-0.0628763571184
-0.214773095244	-0.163194643226	-0.0618094321811
-0.302635224403	-0.0853640777941	-0.0635627849386
-0.394626634118	0.0278041563284	-0.0675026327789
-0.403798334819	0.0775646927072	-0.0653552659894
-0.396928659742	0.111956035334	-0.0687936316829
-0.395497053071	0.138245131023	-0.0669137102017
-0.387736890159	0.164068082356	-0.0638653892787
-0.363809068407	0.199919387552	-0.0680440824322
0.278770578866	0.282587296417	-0.063141048943
0.0228251896055	-0.266308136686	-0.157108109763
-0.353249451449	0.46949161939	-0.0649247109542
-0.222910354892	-0.120537747575	-0.0666536128264
-0.356272037848	0.630032510114	-0.358087596181
-0.182255248031	0.545473288858	-0.0652089280464
-0.164798594141	0.565375255629	-0.0709023287494
-0.146730998883	0.582659651066	-0.0731231689434
-0.425559800804	0.0513912115267	0.01661005288
0.334316927313	-0.0220041033451	-0.186261233369
-0.21993838891	-0.181270876866	-0.0553805536574
-0.292018209091	-0.0966662474268	-0.0624640399459
-0.328763002339	-0.062848747014	-0.0596390541567
-0.352202656467	-0.0477443152199	-0.0587656757205
-0.389181430699	0.0140425170414	-0.0592093773702
-0.401178366863	0.331245714814	-0.0579331858957
-0.368472066114	0.416135630817	-0.0623041964458
-0.13720981411	-0.232594105955	0.229712593894
-0.424166665871	0.455580445327	0.119458916916
-0.28101924179	-0.231836475485	-0.0540279574919
-0.227580255982	-0.199541509356	-0.0524031943478
-0.218537415758	-0.15131353724	-0.0526411674635
-0.225150589209	-0.128561314756	-0.0525460333836
-0.369438456903	-0.0291903160184	-0.0510082882366
-0.385565834324	-0.000935397232307	-0.051407710564
-0.403756927369	0.0383840855778	-0.0553697896323
-0.407182995718	0.0572054488681	-0.0507146853821
-0.401788805061	0.12229983062	-0.0560638719308
-0.00204414473018	0.282644026523	-0.0810327717738
-0.414784099277	0.263767372858	-0.053734537066
-0.416985201574	0.286847193584	-0.0530139400314
-0.377020461734	0.400030772211	-0.0573378202886
-0.367385595699	0.436817733001	-0.0571939787725
-0.34855495766	0.48111590448	-0.0540595478967
-0.198846136923	0.530957158128	-0.0535063860931
-0.17202645935	0.560827179804	-0.0554862125934
-0.359581276997	-0.0413228179873	-0.0458077788996
-0.407413462077	0.0837666889633	-0.0479864455878
-0.401439532319	0.137942546276	-0.0496908947965
-0.396017303388	0.168809076722	-0.044736139753
-0.382771824639	0.199855272646	-0.0478284710422
-0.401164339023	0.231647706894	-0.0462471651974
-0.406253581682	0.246132796224	-0.0499478245831
-0.401616573981	0.35099369423	-0.0483266759407
-0.388380120928	0.385609097796	-0.045753979114
-0.377814769206	0.423088265276	-0.0498179180787
-0.364039869225	0.459220033196	-0.0506226908919
-0.210202136904	0.515439833146	-0.0494974262732
-0.183876464696	0.549483666228	-0.0476708847904
-0.255138701096	-0.214132271549	0.171675810523
-0.450271384992	0.24117469984	0.20028095716
-0.236780896878	-0.202938265542	-0.0389441971821
-0.226536933587	-0.185207074287	-0.0365319020481
-0.320682808035	-0.0835566101364	-0.0425188841533
-0.335966556838	-0.0686455032961	-0.0425643959296
-0.346783780169	-0.0566338817373	-0.0414541896053
-0.409621648571	0.106449669187	-0.0431328380557
-0.402793646208	0.15332292985	-0.0410970676436
-0.391531707149	0.186239455595	-0.0389215482167
-0.422892100087	0.299579798324	-0.0413082895138
-0.413650900333	0.328526018612	-0.0435392335029
-0.402174352304	0.373899548034	-0.04002097286
-0.383588349474	0.405132863317	-0.0427177121728
-0.375345224501	0.450692391561	-0.0407185639988
-0.298589117921	-0.233396971205	-0.0352088983682
-0.389508822048	-0.00963905979921	-0.0361487310727
-0.393156701694	0.0079304820477	-0.0352676668304
-0.400548235793	0.0219243534875	-0.0354844164741
-0.412792313772	0.070534402996	-0.0340699838571
-0.412534122388	0.118974054735	-0.0344144413153
-0.392913492513	0.204887491361	-0.0346970140195
-0.417799607853	0.244211184284	-0.0357947268523
-0.427984524945	0.264022974123	-0.0322160692503
-0.414536956417	0.344404041181	-0.0373972737586
-0.400366233263	0.390597432194	-0.0336029389504
-0.387823665286	0.421038651578	-0.0349274735821
-0.372106600626	0.466463435049	-0.0323039985084
-0.36021972776	0.476572043049	-0.0277864870169
-0.195480008367	0.539316499639	-0.0360841278501
-0.0831805282929	-0.14322218213	-0.116205772225
-0.363060498788	-0.0478646126281	-0.0258322788524
-0.375775982671	-0.0370870719647	-0.0265173644574
-0.385320711541	-0.0246501509244	-0.0272497229158
-0.414190653666	0.0868488601943	-0.0252128999716
-0.404438916915	0.163993433459	-0.0280304996504
-0.429535691256	0.280418414075	-0.0253130052241
-0.427510664845	0.303756654916	-0.0260815008851
-0.387777571888	0.440344897494	-0.0289115063751
-0.443094476913	0.336558644722	0.137115197268
-0.209625844237	0.526683719658	-0.0326698645431
-0.390873946837	0.470168677365	-0.0033481265178
-0.277314117412	-0.215568126774	-0.0179050097197
-0.260861814964	-0.20962666077	-0.0196489943554
-0.233258795131	-0.19744282812	-0.019821738223
-0.223046001763	-0.147027034796	-0.0216488320475
-0.0808740210162	-0.127756882196	-0.121820113752
-0.350360794066	-0.0619436416399	-0.0178855596239
-0.396954496617	-0.00482679976693	-0.0215083132305
-0.410304216041	0.0295644704895	-0.0210808801474
-0.420621482447	0.0518458001024	-0.0218718665747
-0.420383798922	0.0720959368752	-0.0177886856502
-0.411184661052	0.142721953685	-0.0213974350992
-0.415719789916	0.226664483646	-0.0250185677847
0.279746159367	0.190834444066	-0.146240251846
0.0730664061237	0.562065438877	-0.186596794068
0.14627000455	0.228227357809	-0.167165743016
0.244553612201	0.0768254615476	-0.220834480475
0.0304345823872	0.268564585002	-0.106564086307
0.0360230009208	0.108825964495	-0.240314203337
0.303811083586	0.253961161923	-0.0843489372272
0.141470963328	0.130336063986	-0.202766971686
0.281113161322	0.206211290403	-0.140434158155
0.425323112536	-0.209610790416	0.14348556106
-0.287600530618	0.456697996529	-0.291491598553
0.349441104742	0.190055566005	-0.107263546375
0.187538086224	0.302795161373	-0.0897109023498
0.39399655355	0.142043140149	-0.0862912381609
0.412018917006	-0.0900462722634	-0.0698952390582
-0.432926332064	0.235505811984	0.237013677247
0.24558917088	0.249393237184	-0.131559175484
0.237344543986	0.31604188311	-0.0361740208938
0.265696301744	0.251610444785	-0.116905887139
0.271571273752	0.0871903734157	-0.201119593811
-0.201038156325	-0.263998446141	-0.118997880031
0.289233934896	0.127553222043	-0.18201407888
0.176619570167	0.205945316518	-0.176161838298
-0.169271472483	0.54239443703	-0.0820118928272
0.067187073628	-0.292702940358	-0.192650913566
-0.259020097864	-0.215621362393	-0.0447380466084
0.30575486982	0.227131925765	-0.110115688764
0.148838320736	0.267522505281	-0.127255033911
0.0307745755438	0.121134728968	-0.205936066582
-0.0839557604839	-0.270657427833	-0.24034500981
0.317320914478	0.246002048245	-0.0798733403528
0.0741645609449	-0.259497164874	-0.106351184763
-0.103251573229	-0.2268784319	-0.20576202412
0.2317145142	0.0930059387855	-0.218326588466
0.261712251247	0.0673531328968	-0.215975393388
0.320790388199	0.21369326619	-0.110968331079
0.418961507875	-0.100785537945	-0.059789208273
0.376066843164	0.0716210989	-0.146788507491
-0.000634138524528	0.187067781945	-0.184512395326
-0.114962049368	-0.209718161637	-0.15442192625
0.379562376163	0.0813187641715	-0.133594760054
0.136388059901	0.25947117498	-0.133981383559
0.314996209251	-0.106370353662	-0.190560966146
-0.0628798169882	-0.217344715807	-0.221755618072
0.184953862723	0.0788895234479	-0.254665289928
0.398812846217	0.152186041546	-0.0623023759376
0.296511841074	0.19589146788	-0.135397894967
0.071898049318	0.286413381664	-0.0996353656684
0.0151641072992	0.688516960306	-0.148880822596
0.328427675979	0.124537901938	-0.157374252853
0.139732210658	0.0890342526742	-0.262294576791
0.327622768254	0.0811828558806	-0.177156028344
0.359336991942	0.199260709849	-0.088611564187
0.330978923295	0.166968120397	-0.138719930028
0.31295890251	0.0936795312742	-0.180940240833
0.267068781413	0.171923103417	-0.157745304541
0.172416797279	0.101901866375	-0.243763520071
0.266558868547	0.281910251911	-0.0771736537518
0.0575140879977	0.299992915616	-0.0716391735411
0.428885786772	-0.0534270293053	-0.0415225471262
0.424677859214	-0.0733289229322	-0.047547067337
0.374479029536	0.132484577172	-0.118746642557
0.42334128458	-0.118000273239	-0.0686764636427
0.295949836428	-0.123503573994	-0.208710758849
0.267468574462	0.237675245649	-0.130447449697
0.246585938846	0.0907546932	-0.207801056097
0.338403747734	0.231321766124	-0.0768511945779
0.343479410129	0.126745247555	-0.145184737207
-0.134630840303	-0.283116552896	0.229186404335
0.325255205439	0.232351036472	-0.088183466568
-0.0792430002408	-0.245211629658	-0.236386954328
0.141243856712	0.197172428542	-0.177545655863
0.350359827437	0.101700059218	-0.148843436121
-0.0272601736239	0.246877559272	-0.131469589901
-0.121552447457	-0.287724105485	0.196367983336
0.262651677077	0.264128418942	-0.103636108094
0.297054431732	0.177439619909	-0.147129541377
0.10541748969	0.317580959	-0.0575605112785
0.041754088155	0.282956864779	-0.0886863381033
0.497255911728	-0.116818331161	-0.0529213371886
0.00450445560942	0.511603378887	-0.116326800351
0.336645722599	0.192428427171	-0.117325011911
0.256439484538	0.156926188216	-0.176961241238
0.182943939822	0.109020594208	-0.227049472674
0.332763722492	0.219977451514	-0.0969501285638
0.135667704604	0.292788024232	-0.0995078172073
0.0630909839306	0.104226021833	-0.256923726459
0.326810422241	0.184451205273	-0.129199118192
-0.25768137179	0.487157595843	-0.0113355385284
0.246062379703	0.234315757067	-0.140701477068
0.309460326486	0.206385326793	-0.12314138947
0.279824392335	0.0996112728873	-0.191897703576
-0.101186850537	0.596617820737	-0.119490711151
0.489552528319	-0.0815929622055	-0.0425395524453
0.0282440942338	0.305552777179	-0.0342668648632
0.316573310793	0.136800230041	-0.160914276777
0.346531640936	0.233672535697	-0.0591453550365
0.296775659382	0.151034694391	-0.165153432022
-0.106988317645	-0.289001194381	0.155194738683
-0.0963257994693	-0.289613220434	0.140538661872
0.440930969279	-0.0387907072091	-0.0189105749311
0.178019442677	0.117959930561	-0.213293057886
0.251173322079	0.307537786009	-0.0427661848682
-0.0923136504659	-0.232722036522	-0.223703481032
-0.265125155666	0.508013045189	-0.338518068708
-0.0443722417433	0.277223523591	-0.0851605365998
0.402870184874	0.0801716421275	-0.108748591532
-0.255412966465	0.418008768745	-0.0844981958704
0.438645016033	-0.0792006631517	-0.042328073262
0.179249930598	0.127474281606	-0.194816545693
0.0589125287192	0.122317552922	-0.216323165875
0.511136353823	-0.0691306881171	-0.0215476220649
0.109633736596	0.294894945585	-0.104037756915
0.252580910497	0.184319774176	-0.158504325205
0.109175180893	0.201678653273	-0.184839246586
0.438297401847	-0.0944980069856	-0.0540372451343
-0.263435240109	0.477188412315	-0.0374053052071
0.0831645843243	0.210639405658	-0.174792504877
0.29883550108	0.267805307274	-0.0684066817498
0.178917436965	0.318063493903	-0.0629609707919
0.168957353606	0.301804153627	-0.0912537348688
0.107560243633	0.311903206026	-0.0738472257691
0.148561453889	0.310419527231	-0.0735150957016
0.00459966710911	0.226042450134	-0.154733408407
0.128104868114	0.224510400277	-0.163047455233
0.329516402831	-0.102001883499	-0.176944516566
0.484020413776	-0.0654704351103	-0.0315606847146
0.0788806223364	0.611668983325	-0.230439275554
-0.0889394287345	0.58570091204	-0.133342769062
0.264311141386	0.21413076618	-0.144908686531
0.372432601459	0.11433507027	-0.123962839686
-0.256062382439	0.465884258821	-0.0500587908888
0.289305618187	0.258001288575	-0.0938251442274
0.143852797768	0.213660017706	-0.17311107656
0.11191657329	0.304019683737	-0.0907389758978
0.064293749274	0.0919795442808	-0.27039207163
-0.00174738670295	0.100230081423	-0.236840654291
-0.251651446188	0.61541200825	-0.43923732118
-0.258201529365	0.448425265416	-0.0873960684916
0.229451245271	0.264891122692	-0.126131901083
0.325897121177	0.108377472158	-0.168245870403
-0.0103996228401	0.206701505446	-0.166726820323
-0.245878711062	0.48517173773	-0.0293820211206
0.163790112004	0.113987091424	-0.227200657503
0.135865421649	0.32814499811	-0.0335802969367
0.062089223742	0.232405355215	-0.153415057291
0.150383473857	0.25251305665	-0.145576035895
0.236480969179	0.283655236303	-0.0968585170293
0.502007361831	-0.0940941468729	-0.0409539496174
0.116005344203	0.279555954991	-0.116124969842
0.0457158896456	0.256123871456	-0.129447804843
-0.00868902095709	0.272098516685	-0.0985374044922
-0.0217953044831	0.644801019688	-0.160480732882
0.110461675102	0.0967068745451	-0.26291310025
0.367772003677	0.0553853044003	-0.158630154147
-0.0761542678561	-0.227199781659	-0.227547105668
-0.232420476048	0.485872717247	-0.0412494790042
-0.233066702086	0.460570449853	-0.0515742555754
-0.242061173088	0.422925097605	-0.0658946211596
