-0.329531866582	0.096508368142	0.235627103447
0.114931301894	0.349717942063	0.0816284884825
-0.311849167516	0.46584630927	0.221412435194
-0.0243941329358	0.296369532818	0.125861272496
-0.204226969216	0.43983166887	-0.0440333694641
-0.188659334709	-0.218879568819	0.236099124895
-0.173408400941	0.166105728727	0.231451505637
-0.101017072588	-0.0315345757255	0.234966930273
0.208714380543	0.180422282891	0.248390426987
-0.0704162815932	0.218764333768	0.199530689443
-0.0599899269274	0.100433500812	0.251106913784
0.115126483836	0.265976378124	0.215690207584
0.435609751727	0.0597914559438	-0.0531786946155
0.0253027444444	0.033991600766	0.338216927839
0.139899472126	0.0849696120029	0.327867679786
0.532748324437	-0.119716108703	-0.0120973394838
0.199463187788	-0.294539072924	-0.0488630336404
0.506740371422	-0.15368674068	0.125335109783
-0.30403114006	0.298273625461	0.293515725116
0.400896735051	0.0649504561068	0.178738901939
-0.24340462773	0.380642614858	0.183517641163
0.238300451796	-0.193507585271	0.258801543672
-0.176558251743	0.282085881458	0.143619315345
-0.00639524614528	0.542044445396	-0.0700052710262
0.369693920244	-0.0802715986731	0.21469868672
0.0183830799866	-0.264148652048	-0.112475765337
0.326108503131	0.0253560259453	0.254464593068
-0.2385076915	-0.246557770604	-0.10455537216
0.337129818153	0.163836157829	0.20540592566
0.257409135195	-0.275164798109	-0.155454261274
0.339200543083	-0.173733747307	-0.144596305105
0.194729509309	-0.105652991774	0.320859426406
0.36983271737	-0.0154259794378	-0.14843466727
-0.201171187462	-0.203697818982	0.0668508164789
0.0940154662205	0.332260153022	-0.066020749799
-0.0634612674488	-0.299309925468	-0.236103624916
0.425521605631	0.13751975971	0.0653077864324
-0.467251675563	0.390620649545	0.0905460149877
0.482524100115	-0.0326302899377	0.0685924146763
-0.28034963434	0.516214486628	0.118141100442
-0.324246276841	0.563205483929	-0.131929066901
-0.133619091242	0.335013759232	0.0350088834421
0.0634099239282	0.63162274673	-0.229207309056
0.31045402895	0.297280773397	0.0914137724975
0.247839400612	0.331914633822	-0.0201928612543
-0.458761285659	0.0997360359487	0.0406391489161
0.0524289672023	0.143447752336	0.260989527395
-0.376417236833	0.595123586455	-0.232871502445
-0.431666434888	0.307103368697	0.281265517621
-0.289153816094	0.325012806243	-0.10310491969
-0.0488532356483	-0.173713269517	0.209077253612
-0.0703920662884	0.0860454028403	-0.20995888179
-0.440970545336	0.439640056295	0.201257503257
-0.0350336293243	-0.127960285972	-0.245981479668
-0.442047675362	0.208022888531	0.0407011945887
-0.385189294254	0.0798665136825	-0.118111013742
-0.197707803352	0.565511964453	-0.072994135484
-0.385074534992	-0.0360994234592	-0.0519481814008
-0.428977915724	0.400690928245	-0.0364598107742
0.418367072594	-0.0963891803335	-0.0628458163358
-0.302633837758	0.513193040937	-0.00183129014084
0.204665056801	0.264215172746	-0.148342672034
-0.0450866350246	0.299395894045	-0.0708540312677
-0.333780116278	0.501718826791	-0.360525929591
0.0507111481786	0.244334568105	-0.15761211796
0.13429017994	0.148281424059	-0.20008389931
-0.106893828189	0.630814300096	-0.126062997941
-0.171692442329	0.327002834534	-0.0772627364739
-0.114405171618	0.232811532463	-0.160019338394
0.247592522741	0.162165964035	-0.188735037249
0.375190497418	0.184434595833	-0.0967841464686
-0.257432065485	-0.00775970879525	-0.170769429407
-0.079140855588	-0.173742086924	-0.118718415268
-0.0693273509989	-0.289773825703	0.26553070281
-0.31025869448	0.664757629584	-0.44275817524
0.28351252499	-0.107094057296	-0.218733947247
-0.142350010085	0.0057905222772	-0.176189947251
-0.194579995334	-0.120027355835	-0.119326953286
0.190629784963	0.0436486820271	-0.26243873553
0.113748984972	-0.19329557689	-0.249537936643
0.105886220432	-0.0775870046133	-0.278478188158
-0.229204557	0.186774522252	-0.168822772209
-0.398747563388	0.272846279324	-0.0760585728725
-0.00517641818793	0.0242324677523	-0.304672737585
-0.331713982279	0.46268773744	-0.249108757828
0.0519306498782	-0.278356354653	0.292708455699
0.276976442384	-0.284807769329	0.15794677847
0.406107534394	-0.252950125729	-0.0357296826986
0.397782478828	-0.260873903419	0.0871281190627
-0.421196052145	0.214099692639	0.192605218311
0.163355000584	-0.291351414733	0.226251759472
-0.335809395067	-0.105232928369	0.0282165434165
-0.330466841685	-0.297210999357	-0.0318782888501
-0.324518336616	-0.0314616894663	0.201565738665
-0.251064442417	-0.114349371804	0.122118868173
-0.163127097133	-0.296383607956	-0.184840348895
0.134212993441	-0.287287810188	0.0418862071545
0.149509733828	-0.295516824871	-0.185007146109
0.0141208892657	-0.267186590065	0.109565600347
-0.14125538782	-0.297048839063	-0.0537144289785
